# .PCD v0.7 - Point Cloud Data file format
VERSION 0.7
FIELDS x y z
SIZE 4 4 4
TYPE F F F
COUNT 1 1 1
WIDTH 1240
HEIGHT 1
VIEWPOINT 0 0 0 1 0 0 0
POINTS 1240
DATA ascii
0.0099110147 0.0048152679 0.046544537
0.010119636 0.0043203118 0.04646435
-0.0096568121 0.0054797744 0.046504136
-0.0081234314 0.0051671113 0.046575151
-0.0077870362 0.0057166349 0.046561807
0.0077798488 0.0056774202 0.046442937
0.0080754915 0.0051923934 0.046595745
0.0095970044 0.0055169873 0.046551768
-0.0091984896 0.0063032061 0.046536449
-0.0088992128 0.0068167755 0.046578892
-0.0072750472 0.0061234427 0.046494961
-0.0068312902 0.0066165673 0.046472657
0.00671707 0.0067496104 0.046475265
0.0073028305 0.0063162176 0.046445746
0.0088549424 0.0067763412 0.046492081
0.0091939094 0.0062743719 0.046438575
-0.0083894907 0.0074731777 0.046487205
-0.0079823732 0.0079785986 0.046651531
-0.0062678256 0.0072626024 0.046533678
-0.005677944 0.0077537671 0.046527904
0.0055595255 0.0077433665 0.046477553
0.0062753768 0.0072266003 0.046476029
0.0079542492 0.007937585 0.046499878
0.0083748093 0.0074600135 0.046494544
-0.0074870135 0.0084748305 0.046500847
-0.0069560925 0.0089542689 0.046393167
-0.0051998775 0.0081398403 0.046491116
-0.0045384369 0.0085585462 0.046503395
-0.003874551 0.0089176651 0.04651393
0.0038211569 0.0089335945 0.046424087
0.0044694752 0.0085762274 0.046500653
0.0051567759 0.0081484877 0.046556581
0.0069323233 0.0089575145 0.046477053
0.007439414 0.0084791584 0.046566643
-0.006481057 0.0093449773 0.046550192
-0.0057681021 0.0098295361 0.046541806
-0.0033491929 0.0091469064 0.046559963
-0.0024866757 0.0094323233 0.04647788
-0.0015223803 0.0096557699 0.046488754
-0.00051399984 0.009770615 0.046457242
0.00048309178 0.0097695142 0.046538625
0.0014684646 0.0096573504 0.046526052
0.0025506604 0.0094071105 0.046532642
0.0033864316 0.0091137458 0.046538234
0.0057359068 0.0098471856 0.046550322
0.0064643007 0.009304544 0.046500694
-0.0052728471 0.010134272 0.046520937
-0.0044537163 0.010558673 0.046455298
-0.003638986 0.010892875 0.046535537
0.0036419716 0.010879577 0.046530753
0.0045565437 0.010479156 0.046462703
0.0052448926 0.01012513 0.046502005
-0.0031404588 0.011058943 0.046520941
-0.0025099774 0.011205034 0.046475802
-0.0015026001 0.011408671 0.046480283
-0.00050741283 0.011492017 0.046451647
0.00049643085 0.011499411 0.04650721
0.001495676 0.01140545 0.046475824
0.0024981441 0.011217464 0.04645801
0.0031285207 0.011049442 0.0465586
-0.0042208228 -0.0091145299 0.047469985
-0.0034865655 -0.0093880352 0.047533311
-0.002501897 -0.0096503831 0.047506023
-0.0015247569 -0.0098516587 0.047474571
-0.00053837203 -0.0099438913 0.047514491
0.00048997166 -0.0099544832 0.04739869
0.0014978456 -0.0098539917 0.047518004
0.0025762862 -0.0096465079 0.047532637
0.0035465655 -0.0093593299 0.04755111
0.0042204289 -0.009102446 0.04746937
-0.0061154217 -0.0080491863 0.047525611
-0.0055132541 -0.0084237764 0.047467444
-0.004727521 -0.0088839894 0.047641132
-0.0020538257 -0.008007925 0.047812447
-0.0014573762 -0.0081253359 0.047521371
-0.00044453616 -0.0082321214 0.047509935
0.0005169349 -0.0082279732 0.047515966
0.0014817017 -0.0081158886 0.047471993
0.0020480363 -0.0080087464 0.047479287
0.0047079339 -0.0088568311 0.047493752
0.0055286186 -0.0084141446 0.047490165
0.0060963565 -0.0080420356 0.047397356
-0.0071886312 -0.0071824561 0.047498003
-0.0066092969 -0.0076907091 0.047471266
-0.0043038032 -0.0071572289 0.047501259
-0.0034682129 -0.0075548054 0.047503613
-0.0025253482 -0.0078870626 0.047549274
0.0025572733 -0.0078602862 0.047516637
0.003515756 -0.0075210389 0.047516756
0.004286964 -0.0071464488 0.047430329
0.006584737 -0.0076784915 0.047533382
0.0071875672 -0.0071950401 0.047534261
-0.0081708729 -0.0061810142 0.047426097
-0.0077041313 -0.0067178975 0.047578536
-0.0054807854 -0.0063222367 0.047534138
-0.0047762599 -0.006873982 0.047503516
0.004755557 -0.006872959 0.047525141
0.0054646712 -0.0063591003 0.047498018
0.0076606702 -0.0067107235 0.047506694
0.0081621269 -0.0061792671 0.047527716
-0.0090282196 -0.0050742193 0.04750751
-0.0086664939 -0.0055620233 0.047467422
-0.0064805602 -0.0055010049 0.047523383
-0.0059938007 -0.0059868861 0.047667839
0.0059711053 -0.0059517222 0.047631502
0.0064752824 -0.0054745744 0.047524653
0.0086755771 -0.0055076829 0.047496486
0.0090110246 -0.0050128256 0.047583502
-0.0093421899 -0.0044986545 0.047537487
-0.0074834791 -0.004564269 0.047532082
-0.0069896593 -0.004959987 0.047846053
0.0069238385 -0.0048354967 0.047544405
0.0074724881 -0.0044063674 0.04749725
0.0093348864 -0.0044848388 0.047525659
-0.010017042 -0.0030793454 0.047593441
-0.0098307347 -0.0035701382 0.047486298
-0.0082211271 -0.0034263071 0.047502078
-0.0079456968 -0.0039162948 0.047499988
0.0079268571 -0.0038886778 0.047486309
0.0081931483 -0.0034153552 0.047472674
0.0098015722 -0.0035139571 0.04754192
0.010017094 -0.003038635 0.047607683
-0.010220793 -0.0024991781 0.047462501
-0.0086253649 -0.0025037329 0.047552627
0.0085794814 -0.002523832 0.047506057
0.010189136 -0.0025205247 0.047504731
-0.010504646 -0.0014432077 0.047499262
-0.0090298271 -0.0011392114 0.047429681
-0.0089082578 -0.0016523034 0.047536217
0.0088896696 -0.001521259 0.047528669
0.0090035712 -0.0010421576 0.047578175
0.010457813 -0.0015111601 0.047455531
-0.010667298 -0.00047635549 0.047465257
-0.0091451947 -0.00048561025 0.047502957
0.0091069276 -0.00049841357 0.047535993
0.01062596 -0.0004775761 0.047538526
-0.010730226 0.00052536657 0.047547333
-0.0092251971 0.00049945695 0.047511768
0.0091882171 0.00049561163 0.047504652
0.010705848 0.00049685588 0.047501806
-0.010722114 0.001488043 0.047450837
-0.0092013748 0.0014978753 0.047455356
0.0091669951 0.0015143632 0.047546878
0.010672565 0.0014802946 0.04752849
-0.010590334 0.0025003981 0.047429431
-0.0090770982 0.0024126142 0.04744111
-0.0089702429 0.002870803 0.047537602
0.0089636846 0.0028261575 0.047473963
0.0090663368 0.0023349656 0.047503032
0.010580051 0.0024583107 0.047554381
-0.010392255 0.0035139956 0.047445156
-0.0088210208 0.0034709501 0.047498778
0.0087805614 0.0035202769 0.047481056
0.010341828 0.0035005328 0.04752047
-0.010118284 0.0043418203 0.047539841
-0.0099508297 0.0048132297 0.047436401
-0.0084344484 0.0045102374 0.047505945
0.0083982954 0.0045186174 0.047533192
0.0099202348 0.0047948696 0.047485251
0.010118406 0.0043187533 0.047435932
-0.0096236281 0.0055416217 0.047441397
-0.0080919228 0.0052221739 0.047487147
-0.0077927737 0.0056915078 0.047487855
0.0078098448 0.0056288708 0.047456123
0.0080879591 0.0051712426 0.047539011
0.009595328 0.0055199335 0.047512986
-0.0091794711 0.0063372497 0.047467694
-0.0088796495 0.0068458603 0.04750653
-0.0072790361 0.0061141499 0.047464572
-0.0067880829 0.0066864975 0.047551289
0.0067609744 0.0067152502 0.047601134
0.007326337 0.0062898495 0.0474815
0.0088548344 0.006776406 0.04753565
0.009180326 0.0062946109 0.047447033
-0.0083640879 0.0075045507 0.047552403
-0.0079743052 0.0079880571 0.047481775
-0.0062699048 0.0072698747 0.047513988
-0.005695188 0.0077506537 0.047499433
0.0055962498 0.0077324715 0.047511958
0.0062539391 0.0072591677 0.047502629
0.0079462351 0.0079459464 0.047387816
0.0083767297 0.0074566924 0.047500145
-0.0075066616 0.0084578441 0.047535263
-0.006946675 0.0089618545 0.047534708
-0.0051960135 0.0081551233 0.047506541
-0.0044850311 0.008600736 0.047495067
-0.0038440053 0.0089437906 0.047499713
0.003843403 0.0089338496 0.047485624
0.0044306591 0.008609538 0.047477216
0.0051922468 0.0081279669 0.047481347
0.0069347494 0.0089557208 0.047357492
0.0074240472 0.0084941275 0.047558237
-0.0064737899 0.0093491748 0.047476549
-0.0057107834 0.0098642986 0.047448095
-0.0033921325 0.0091394223 0.047502451
-0.0025194997 0.0094312159 0.047465846
-0.0014739721 0.0096732043 0.047536224
-0.00045054543 0.0097844917 0.047538072
0.00056924997 0.0097733606 0.047477104
0.0015068018 0.0096581317 0.047471657
0.0024341943 0.0094499281 0.047534619
0.0033363539 0.0091445027 0.04750324
0.0057720342 0.0098202461 0.047455274
0.006416453 0.0093399687 0.047475759
-0.0052499706 0.01014783 0.047461428
-0.0045346771 0.010520953 0.047456581
-0.0036265939 0.010897906 0.047531057
0.0036608514 0.010872532 0.047545161
0.0044623306 0.010527683 0.047500476
0.0052482979 0.010123344 0.047540504
-0.0031786927 0.011047483 0.047471859
-0.0024350691 0.011220818 0.047488321
-0.0015062764 0.01140828 0.047470029
-0.00051249051 0.011491701 0.047540687
0.00050879462 0.011500176 0.04749025
0.0014895733 0.011407631 0.047551136
0.0024883926 0.01121999 0.047487531
0.0031505921 0.011043523 0.047516905
-0.0042304839 -0.0091118962 0.048665278
-0.0034583288 -0.0093976632 0.048531979
-0.0024963843 -0.0096509894 0.048504043
-0.00148101 -0.0098602856 0.048510686
-0.00051290315 -0.0099450937 0.048469383
0.00051427318 -0.0099529848 0.048500001
0.001488767 -0.0098560555 0.048482809
0.0024472235 -0.0096783284 0.048472404
0.0035135818 -0.009371303 0.048503093
0.0042081405 -0.0091076298 0.048565254
-0.0060697328 -0.0080773188 0.048500419
-0.0055119609 -0.0084243501 0.04848846
-0.0047887322 -0.0088543463 0.048619442
-0.0020737499 -0.0080099711 0.048492935
-0.0014855613 -0.0081282249 0.048500203
-0.00052300497 -0.0082363952 0.048468057
0.00050574727 -0.0082362927 0.048500936
0.0015125542 -0.0081205955 0.048504695
0.0020532878 -0.0080166748 0.048517797
0.0047050524 -0.0088583389 0.048482724
0.005489551 -0.0084355287 0.04847059
0.0060692867 -0.0080614202 0.048447806
-0.0072142626 -0.0071598981 0.048554968
-0.0065663084 -0.0077288677 0.048510842
-0.0042698644 -0.0071864356 0.048524946
-0.0034720395 -0.0075612902 0.048523847
-0.0025530898 -0.0078862282 0.048543815
0.0025256812 -0.0078799007 0.048582632
0.0034604066 -0.0075534764 0.048503548
0.0042697573 -0.0071674217 0.048519742
0.0065756193 -0.007684723 0.048525285
0.0072036749 -0.007179684 0.04851472
-0.0081539173 -0.0062021166 0.048462462
-0.0077306679 -0.0066933893 0.048496179
-0.0054416941 -0.0063623996 0.048504706
-0.0047846078 -0.0068791811 0.048510458
0.0048139598 -0.0068474477 0.048424184
0.0054549137 -0.0063775959 0.048455156
0.007714265 -0.0066541932 0.048471574
0.0081818141 -0.0061578099 0.048509687
-0.0090426337 -0.0050466303 0.048476517
-0.0086824233 -0.005542791 0.048549429
-0.006483708 -0.0055099959 0.048488602
0.0059604505 -0.0059719002 0.048670746
0.0064696218 -0.0054929284 0.048537195
0.0086390888 -0.0055607986 0.048445601
-0.0093229711 -0.0045329081 0.048554309
-0.0074828314 -0.0045781299 0.048505843
-0.0069903256 -0.0049666939 0.048485957
0.0069285855 -0.0048029469 0.048579335
0.0074645402 -0.0044209021 0.048503816
0.0093111126 -0.0045242906 0.048500519
-0.010026654 -0.0030502726 0.048578132
-0.0098097548 -0.0036189363 0.048425186
-0.0082267057 -0.0034161764 0.04851836
-0.0079458784 -0.0039157895 0.048535474
0.0079393545 -0.0038665608 0.048520148
0.0082121668 -0.0033751726 0.04848266
0.0097962301 -0.0035240338 0.04848421
0.010015937 -0.0030412888 0.048241656
-0.010228208 -0.002478169 0.048464701
-0.0086173275 -0.0025251524 0.048524063
0.008601998 -0.0024673382 0.048462156
0.010193633 -0.0025040656 0.048472013
-0.010490341 -0.0015279722 0.04846134
-0.0090292478 -0.0011417962 0.048481051
-0.0089213978 -0.0016010966 0.048485529
0.0088882884 -0.0015274623 0.048470803
0.0090104146 -0.0010115089 0.048888359
0.010453363 -0.0015268159 0.048544027
-0.010657608 -0.00053661468 0.048514389
-0.0091526546 -0.00042864351 0.048508897
0.0091087008 -0.00049383106 0.048512433
0.01062939 -0.00043726905 0.048516899
-0.010730172 0.00047428257 0.048486482
-0.0092261992 0.00051521591 0.048512343
0.009188354 0.00050117733 0.048497293
0.010706031 0.000502204 0.048548706
-0.010720721 0.0015154362 0.048497893
-0.0092013953 0.001495656 0.048464611
0.009165152 0.0015129376 0.048528682
0.010670369 0.0015061847 0.04847981
-0.01059118 0.0024949929 0.048489004
-0.0090862364 0.0023743925 0.048567064
-0.0089681288 0.0028807169 0.048479006
0.0089601064 0.0028419071 0.048639536
0.0090625277 0.0023589742 0.048524532
0.010558697 0.0025730338 0.048462212
-0.010384562 0.0035340206 0.048479613
-0.0088134082 0.0035012858 0.048488468
0.008788269 0.0034932161 0.048507787
0.010343206 0.0034950464 0.048514992
-0.010115783 0.0043493574 0.048488699
-0.0099417362 0.0048389658 0.0485668
-0.0084496075 0.0044754646 0.048541639
0.0084044365 0.0045072357 0.048538972
0.0099090897 0.0048195296 0.048520699
0.010137592 0.0042637298 0.048435185
-0.0096606389 0.0054699499 0.048507418
-0.0081197312 0.0051721749 0.048430175
-0.0077765649 0.0057016648 0.048571717
0.007790314 0.0056599956 0.048507612
0.0081044585 0.0051406207 0.048568528
0.0096003832 0.0055084112 0.048530672
-0.0091745909 0.0063459836 0.048437875
-0.0088962186 0.0068211206 0.048496164
-0.0073316977 0.0061015985 0.048401929
-0.0068403641 0.0066287853 0.048502482
0.0067528863 0.0067339516 0.048517808
0.0073489523 0.0062710228 0.048579838
0.0088427104 0.0067942403 0.048531104
0.0091871601 0.0062844041 0.048512585
-0.0083825048 0.0074807862 0.048492681
-0.0079726977 0.0079893386 0.048578396
-0.0063170032 0.0072368453 0.048439376
-0.005706613 0.0077524306 0.04848706
0.0055982252 0.0077323355 0.048468687
0.0062734168 0.0072511588 0.048553612
0.0079539549 0.0079378905 0.048525881
0.008405827 0.0074167447 0.048503987
-0.0074629169 0.0084977467 0.04844372
-0.0069538769 0.0089548761 0.048571311
-0.005194156 0.00816637 0.048490271
-0.0045517548 0.008571839 0.048452411
-0.003875975 0.008938469 0.04854181
0.0038872208 0.0089235203 0.048528187
0.0044827694 0.0085887276 0.048461989
0.0051557487 0.008166071 0.048497416
0.006936607 0.0089543462 0.048524827
0.0074836528 0.008432244 0.048486676
-0.0064517553 0.0093681654 0.048500475
-0.0057603512 0.0098332325 0.048362121
-0.0033878984 0.0091504892 0.04853585
-0.0024557805 0.0094598169 0.048487898
-0.0015159193 0.0096753063 0.048490107
-0.000522302 0.0097890329 0.048511259
0.00049473281 0.0097860238 0.048524093
0.0015017622 0.0096681332 0.048499648
0.0025018365 0.0094381822 0.048545249
0.0033566074 0.0091458699 0.048452865
0.0057606939 0.0098296152 0.048469454
0.0064542857 0.0093119172 0.048505824
-0.0052355803 0.010155777 0.048503317
-0.004450819 0.010560668 0.048435684
-0.0036803405 0.010878544 0.048502062
0.003680829 0.010866286 0.048444051
0.0044760401 0.010520783 0.048507728
0.0052427938 0.010126232 0.048462875
-0.0031609335 0.011052339 0.048552036
-0.0025260057 0.011199682 0.048512083
-0.0014852311 0.011411262 0.048487965
-0.00050476025 0.011492671 0.048444062
0.00047757122 0.011502309 0.048468001
0.0015347656 0.011402482 0.048531003
0.002506519 0.011214685 0.048489176
0.0031422796 0.01104653 0.048468783
-0.0042373454 -0.0091093369 0.049458839
-0.0035137383 -0.0093818335 0.049504038
-0.0024827111 -0.0096534211 0.049457058
-0.0015074435 -0.0098539544 0.049515132
-0.00049629231 -0.0099458685 0.049474541
0.00044600698 -0.0099573182 0.049479615
0.0015520132 -0.0098461155 0.049475458
0.0025032037 -0.0096645951 0.049544372
0.003482918 -0.0093820989 0.049545612
0.0042628273 -0.0090834275 0.049590588
-0.006105978 -0.0080550006 0.049451597
-0.0054500834 -0.0084631732 0.04949148
-0.0047096359 -0.0088921245 0.04948495
-0.0020993573 -0.0080134273 0.049444247
-0.0014950172 -0.008134814 0.049507331
-0.00049504678 -0.00824642 0.049493138
0.00051944429 -0.0082456795 0.049530648
0.0014831241 -0.0081341136 0.049531385
0.0020931789 -0.0080180056 0.049633432
0.0047199898 -0.0088505028 0.049508296
0.0054996372 -0.008430508 0.04949325
0.0060634492 -0.0080652013 0.04933453
-0.0071795303 -0.0071904664 0.049584363
-0.0066455742 -0.0076596616 0.049503118
-0.0043152692 -0.0071697137 0.049475998
-0.0035382207 -0.0075469241 0.049522694
-0.0026187464 -0.0078765405 0.049546383
0.0026018585 -0.0078635933 0.049418174
0.0035081606 -0.0075435615 0.049509853
0.0042819064 -0.0071701864 0.04949262
0.0065870783 -0.0076756296 0.049554117
0.0072186403 -0.0071635162 0.049591213
-0.0081705879 -0.0061805788 0.049622003
-0.0077059385 -0.0067144376 0.049487952
-0.0054594097 -0.0063363044 0.049466744
-0.0048212735 -0.0068676155 0.049552113
0.0047709448 -0.0068838554 0.049501512
0.0054837768 -0.0063658594 0.049503263
0.0076891892 -0.0066797142 0.049492385
0.0081524756 -0.0061897887 0.049405288
-0.0090300487 -0.0050690412 0.049571816
-0.0086381473 -0.0055976314 0.049511336
-0.0065320455 -0.0054715443 0.049485605
0.0059749982 -0.0059713922 0.049674477
0.0064615528 -0.0055132005 0.049518757
0.0086839143 -0.0054936344 0.049429063
0.009009988 -0.0050131273 0.049436491
-0.0093701817 -0.0044473056 0.04950377
-0.0074811359 -0.0045591374 0.049507216
-0.0069925971 -0.0049752877 0.049499124
0.0069241538 -0.0048255422 0.049586933
0.0074316068 -0.0044350498 0.049501486
0.0093409847 -0.0044690995 0.049525067
-0.010016735 -0.0030787049 0.049322981
-0.0098414216 -0.0035403222 0.049486849
-0.0082251495 -0.003417949 0.049488109
-0.0079508554 -0.0039076558 0.04939995
0.0079308366 -0.0038791653 0.049459893
0.0082002357 -0.0033983854 0.049524244
0.0097782761 -0.0035634635 0.049476098
0.010018525 -0.0030353596 0.049371082
-0.010209898 -0.0025299974 0.049433865
-0.008622936 -0.0025067604 0.049478292
0.0085710371 -0.0025443626 0.049450748
0.010190903 -0.0025116161 0.049517427
-0.010497281 -0.0014873805 0.049469285
-0.0090307361 -0.0011353113 0.049394652
-0.0089095915 -0.0016465751 0.049472958
0.0088883908 -0.0015280012 0.049481928
0.0090072444 -0.0010257066 0.049646739
0.010458861 -0.0015043396 0.049492255
-0.010666531 -0.00048346847 0.049479552
-0.0091361646 -0.00055029109 0.049487013
0.0091107972 -0.0004816211 0.049461529
0.010618297 -0.00056763308 0.049506675
-0.01073011 0.0004837274 0.049530704
-0.0092251152 0.00046121469 0.049540944
0.009189114 0.0005098604 0.049478441
0.010706554 0.00052227965 0.04951499
-0.010720687 0.001496292 0.049528014
-0.0092019262 0.0014884898 0.049483731
0.0091662379 0.0015055471 0.049498469
0.010669421 0.0015170565 0.049492098
-0.010593132 0.002482909 0.049515892
-0.0090817343 0.0023930753 0.049480561
-0.0089697475 0.0028756247 0.049413905
0.0089605059 0.0028401949 0.04946772
0.009065927 0.0023471841 0.049560133
0.010578328 0.0024663059 0.049442731
-0.010397846 0.0034871062 0.049411826
-0.0088090627 0.0035112915 0.049519334
0.0087874634 0.0034952457 0.049514774
0.01033747 0.0035168889 0.049582306
-0.010123868 0.0043255715 0.049485013
-0.0099512758 0.0048119635 0.049479451
-0.0084293736 0.0045212405 0.049425691
0.0084168911 0.0044757989 0.049534176
0.0099100946 0.0048173047 0.049538586
0.010112053 0.0043414407 0.049527578
-0.0096313311 0.0055293059 0.049544815
-0.008111137 0.0051861187 0.049517825
-0.0077782888 0.00571121 0.049521737
0.0077870437 0.0056651114 0.049497869
0.0080980752 0.0051528644 0.049523417
0.0095877852 0.0055359555 0.049555797
-0.0091925766 0.006313791 0.049491931
-0.0088896472 0.0068342388 0.04951103
-0.0072947983 0.006113267 0.049496695
-0.0068071461 0.0066780583 0.049568098
0.0067537539 0.0067436136 0.049438193
0.0073272339 0.0063007018 0.049524285
0.0088575436 0.0067721973 0.049579311
0.009199298 0.0062665259 0.049470007
-0.0083798729 0.0074836574 0.04949408
-0.0079726381 0.0079886001 0.049836941
-0.0062620942 0.0073016952 0.049476027
-0.0057066903 0.007763647 0.049500406
0.0055389004 0.0077642985 0.049579684
0.0062612318 0.0072757634 0.04952196
0.007941273 0.0079511236 0.049603011
0.0083717434 0.0074647786 0.049457386
-0.007510724 0.0084523568 0.049502145
-0.0069710328 0.0089391293 0.04962346
-0.0052169049 0.0081602037 0.04958725
-0.0044564162 0.0086384481 0.049507271
-0.0038920734 0.0089419885 0.049547616
0.0038831404 0.008934211 0.049407855
0.0044931415 0.0085930331 0.049490634
0.0051797936 0.0081541864 0.049538277
0.006945671 0.0089476435 0.049616773
0.0074715638 0.0084442692 0.049520385
-0.0064548287 0.0093654757 0.049424466
-0.0057422058 0.0098437741 0.04941909
-0.0033507114 0.0091746887 0.049508557
-0.0025456552 0.0094419839 0.04952912
-0.0014965902 0.0096885795 0.049538359
-0.00050656334 0.0097972024 0.049535297
0.00048389364 0.0097959191 0.049510133
0.0015430534 0.0096700341 0.049513172
0.0024728221 0.0094553297 0.049536668
0.0033942964 0.0091418885 0.049522497
0.0057418551 0.0098408265 0.049465917
0.0064503397 0.009314388 0.049516246
-0.0052503394 0.010146352 0.049474083
-0.0044907541 0.010542166 0.049542986
-0.0036954759 0.010873581 0.049518529
0.0036588963 0.01087411 0.049492311
0.0044734213 0.010523521 0.049475119
0.0052352902 0.010130168 0.049595248
-0.0031565863 0.011054239 0.049515419
-0.0024636837 0.011212625 0.049475014
-0.0015248877 0.011404378 0.049523674
-0.00049838761 0.011493343 0.049542774
0.00048668464 0.011501101 0.049486902
0.0014612824 0.011412115 0.049490575
0.0024973685 0.011217534 0.049508102
0.0031800447 0.011035651 0.049519472
-0.0042740004 -0.009094337 0.050522663
-0.0034715894 -0.0093968026 0.050460532
-0.0025136608 -0.0096459873 0.050466716
-0.0015071875 -0.0098558404 0.05046187
-0.00050937344 -0.0099446326 0.050523926
0.00054684433 -0.0099504674 0.050555427
0.0014513478 -0.0098632174 0.050433178
0.002488662 -0.0096680243 0.050486479
0.0035518457 -0.0093587255 0.050578743
0.0041992953 -0.0091112023 0.050405893
-0.0060998756 -0.0080587585 0.050434377
-0.0055296537 -0.0084123546 0.05048202
-0.0047387867 -0.0088783558 0.050432216
-0.0020958118 -0.0080220662 0.05046377
-0.0015235202 -0.0081392284 0.050443854
-0.00053625653 -0.0082535548 0.050501674
0.00049754465 -0.0082547655 0.050500199
0.001493517 -0.0081411656 0.050546754
0.0021015189 -0.0080231735 0.050420839
0.0047185617 -0.0088512516 0.050513878
0.0055240705 -0.0084163342 0.050476421
0.0060789492 -0.0080530411 0.050483137
-0.0071864775 -0.0071843513 0.050501399
-0.0066094887 -0.0076907431 0.0505086
-0.0042678327 -0.007207924 0.050462745
-0.0035101315 -0.0075682029 0.050491747
-0.0026193524 -0.0078849113 0.050488465
0.0026049698 -0.0078723766 0.050486866
0.0035087899 -0.0075548561 0.050529085
0.0043117302 -0.0071631577 0.050467897
0.0065711224 -0.0076877787 0.050550964
0.0071853846 -0.0071957922 0.050592177
-0.008154829 -0.0061997082 0.050476227
-0.0077220392 -0.0066992925 0.050551932
-0.0060113175 -0.0060098106 0.050848629
-0.0054486664 -0.0063524209 0.050494913
-0.0048073428 -0.0068859719 0.050528355
0.0047843433 -0.0068853931 0.050437372
0.0054613091 -0.0063954769 0.050532684
0.0077226772 -0.0066441153 0.050538946
0.0081739835 -0.0061663035 0.050491117
-0.0090297777 -0.0050686747 0.050577711
-0.0086850533 -0.0055384212 0.050534047
-0.0065375962 -0.0054775584 0.050486751
0.0059724026 -0.0059841112 0.05062671
0.0064778435 -0.0055073514 0.050446682
0.0086774612 -0.0055031744 0.050458841
0.009016322 -0.0050028395 0.050812788
-0.0093482146 -0.0044868584 0.050485484
-0.0075226487 -0.0045351586 0.050537504
-0.0069881338 -0.0049924068 0.05077105
0.0069248728 -0.0048224512 0.050491203
0.0074594277 -0.0044235913 0.050528042
0.0092961881 -0.0045518433 0.050497066
-0.010022572 -0.0030610731 0.050168511
-0.0098292157 -0.0035771679 0.050555389
-0.0082432516 -0.0033845217 0.05050759
-0.0079430994 -0.0039200466 0.050452154
0.0079255244 -0.0038862305 0.050573155
0.0082044564 -0.0033925599 0.050499078
0.0097816344 -0.0035546387 0.050491296
0.010013881 -0.003046002 0.050329871
-0.010224598 -0.0024883854 0.050461419
-0.0086171934 -0.0025243501 0.050555438
0.008582578 -0.0025136978 0.050502602
0.010204126 -0.0024679115 0.050532535
-0.010490203 -0.0015293467 0.050542332
-0.0090333717 -0.0011237978 0.050535955
-0.0089082615 -0.0016509999 0.050551929
0.0088854413 -0.0015416482 0.050474234
0.0090060877 -0.0010308895 0.050446521
0.010457939 -0.0015092525 0.050518118
-0.010661881 -0.00051255868 0.050554056
-0.0091395341 -0.0005283737 0.050566636
0.00910802 -0.00050246087 0.050505098
0.01062638 -0.00047264315 0.050533056
-0.010730054 0.00049728056 0.050539181
-0.0092257261 0.00049919385 0.050562322
0.0091876155 0.0004807795 0.050468571
0.010704841 0.00049527956 0.050476871
-0.010722104 0.0015086522 0.050550271
-0.0092008859 0.0015052425 0.050519269
0.0091675101 0.001492339 0.050460488
0.01067074 0.0015015408 0.05045769
-0.010586149 0.0025222772 0.050501511
-0.0090848412 0.0023812337 0.05047106
-0.0089708054 0.0028752696 0.050573211
0.0089663388 0.0028146866 0.050446354
0.0090680271 0.0023214847 0.050443847
0.010559008 0.0025828974 0.050550181
-0.010383115 0.0035490638 0.050461359
-0.0088128354 0.00350411 0.050498206
0.0087779984 0.0035199863 0.0504504
0.010341462 0.0035013712 0.050541438
-0.010125116 0.0043214979 0.050513566
-0.0099422969 0.0048373779 0.050583486
-0.0084410599 0.0044936552 0.050516311
0.0083969953 0.0045235646 0.050510243
0.0099135172 0.0048097363 0.050445329
0.010122674 0.0043071131 0.050442509
-0.0096329376 0.0055230353 0.050504979
-0.0081097232 0.0051883012 0.05056544
-0.0077999132 0.0056756907 0.050402097
0.0077855065 0.0056673791 0.050503585
0.0080947848 0.0051573799 0.050374877
0.0096199336 0.0054635755 0.050491896
-0.0091875382 0.0063228081 0.050496742
-0.0088871792 0.0068346434 0.050479561
-0.0073074945 0.0061041173 0.050569352
-0.006855031 0.0066195256 0.050506275
0.0067699566 0.0067390297 0.050514348
0.0073233498 0.0062930798 0.050544277
0.0088502755 0.0067829397 0.050492305
0.0092033679 0.0062605003 0.050528087
-0.008381824 0.0074807513 0.050481599
-0.0079782456 0.0079812417 0.050479114
-0.0063292738 0.0072494135 0.050507639
-0.0057338914 0.0077526178 0.050482485
0.0056387703 0.0077111158 0.050527077
0.0062925243 0.0072589894 0.05057513
0.0079338858 0.0079588313 0.050558634
0.0083151702 0.0075323712 0.050496187
-0.0074900743 0.0084717656 0.050464239
-0.0069396901 0.008966255 0.050368264
-0.0052229245 0.0081641311 0.050413001
-0.0045624916 0.0085869245 0.050479189
-0.0039231968 0.0089389682 0.050556671
0.0039084288 0.008930631 0.050300092
0.0044291564 0.0086414218 0.05050502
0.0051746969 0.0081830481 0.050570447
0.00694302 0.0089496048 0.050475001
0.0074580461 0.0084585594 0.050443187
-0.0064914464 0.0093377205 0.050532211
-0.0057182861 0.0098578269 0.050554115
-0.0034319812 0.0091535356 0.050518379
-0.002478729 0.0094713345 0.050519247
-0.0014884952 0.009697631 0.05049485
-0.0005057446 0.0098070391 0.050489027
0.00043874589 0.0098056635 0.050450645
0.001496574 0.0096882628 0.050540272
0.0025260739 0.0094492137 0.050444309
0.0033884826 0.0091559105 0.050588358
0.0057414332 0.0098416274 0.050531507
0.0064113075 0.0093433913 0.050528403
-0.0052415752 0.010151363 0.050361875
-0.0044719069 0.01055076 0.050531622
-0.0036219878 0.010900402 0.050580844
0.0036619965 0.010872977 0.050531164
0.0044865091 0.010517936 0.050499015
0.0052537234 0.010120499 0.050435044
-0.0031848399 0.011045621 0.050454117
-0.0025203738 0.011199065 0.050533243
-0.0015284779 0.011404623 0.050521601
-0.00051976944 0.011492239 0.050548177
0.00049393415 0.011501909 0.050528053
0.0015581578 0.01140153 0.050498895
0.0025126301 0.011214125 0.050491489
0.0031438689 0.011047639 0.050682791
-0.0042200829 -0.0091171879 0.05144063
-0.0035247207 -0.0093642063 0.051446699
-0.0025133202 -0.009645394 0.051563431
-0.0014989338 -0.0098548336 0.05144199
-0.0004821881 -0.0099459374 0.051535491
0.00051115378 -0.0099535231 0.05149259
0.0015478742 -0.0098499879 0.051463611
0.0025419309 -0.0096545955 0.051568691
0.0034883048 -0.0093581975 0.051555268
0.0042605181 -0.0090847109 0.051458344
-0.0060826228 -0.008069382 0.051446769
-0.0054469858 -0.008463989 0.051555965
-0.0045361379 -0.0087714233 0.051635411
-0.0037383323 -0.0085176891 0.051882677
-0.0021157884 -0.0080277612 0.051519338
-0.0014841747 -0.0081549091 0.051478978
-0.00048963074 -0.0082638822 0.051458318
0.00049670244 -0.008263736 0.051502228
0.0015289013 -0.0081454925 0.05151391
0.0021209989 -0.0080287699 0.051582336
0.0036934013 -0.0084969876 0.051894829
0.0045695473 -0.0087919142 0.051602803
0.0055264207 -0.0084140962 0.051447805
0.0060766009 -0.0080541791 0.051474024
-0.0072167916 -0.0071576713 0.051521424
-0.006584648 -0.0077093542 0.051510554
-0.0042873654 -0.0072158743 0.051453967
-0.0035749467 -0.0076136724 0.051563852
-0.0026219403 -0.0078947479 0.051509615
0.0026260493 -0.0078744823 0.051461637
0.003540878 -0.0076076277 0.051601294
0.0042587183 -0.0072214492 0.051478505
0.0065847761 -0.0076765371 0.051423937
0.0071865045 -0.0071953665 0.051414605
-0.0081454264 -0.0062112501 0.051511608
-0.0077298405 -0.006692742 0.0515428
-0.0060125971 -0.0060143671 0.051320262
-0.0054382156 -0.0063713905 0.051465128
-0.0048013511 -0.0068993992 0.051492035
0.004803671 -0.0068849553 0.05152531
0.0054507488 -0.0064140465 0.051463164
0.007667074 -0.0067014787 0.051574554
0.0081780804 -0.0061617959 0.05150608
-0.0090390947 -0.005050452 0.051655725
-0.008649691 -0.00558331 0.051550165
-0.0064789183 -0.005551449 0.051471896
0.0059921062 -0.0059750741 0.051238179
0.0064932131 -0.005503248 0.05147177
0.0086450269 -0.0055502551 0.051477872
0.0090013957 -0.0050242515 0.051823117
-0.0093221394 -0.0045336005 0.051485121
-0.0075083915 -0.0045395689 0.051537193
0.0069253156 -0.0048206383 0.051424202
0.0074570868 -0.0044190204 0.051547308
0.0093172677 -0.0045130644 0.051571004
-0.010019463 -0.003069455 0.051513918
-0.0098241055 -0.0035817267 0.051542852
-0.0082131475 -0.0034397384 0.051526941
-0.0079585481 -0.0038948446 0.051543616
0.0079250885 -0.0038857092 0.051397689
0.0082123429 -0.0033713665 0.051524889
0.0098014083 -0.0035120272 0.051510312
0.010022176 -0.0030269914 0.051535815
-0.010228107 -0.0024784582 0.051466819
-0.0086290101 -0.0024954919 0.051499765
0.0086027943 -0.0024629312 0.051538114
0.010184162 -0.0025379574 0.051501784
-0.010499883 -0.0014708276 0.051518373
-0.0090298746 -0.0011391226 0.051456586
-0.0089127058 -0.001630604 0.051554583
0.0088892849 -0.0015252018 0.051432572
0.0090070413 -0.0010266185 0.051465485
0.010462736 -0.0014893112 0.051505234
-0.010663047 -0.00050259935 0.051545087
-0.0091558034 -0.00041521975 0.051506728
0.0091062076 -0.00051609613 0.051494434
0.010622422 -0.00051914842 0.051443297
-0.010729996 0.00050021999 0.051514275
-0.009226596 0.00049016642 0.051483177
0.0091898069 0.00053270446 0.051559504
0.01070287 0.00045645813 0.051382519
-0.010721672 0.00146326 0.051448014
-0.0092018703 0.0014958994 0.051532432
0.0091631468 0.0015479436 0.051517941
0.010671588 0.0014914911 0.051517766
-0.010591665 0.0024911659 0.051501714
-0.0090878522 0.0023657922 0.051454425
-0.0089728795 0.002871583 0.051483136
0.0089619625 0.0028339408 0.051567793
0.0090680029 0.0023308282 0.051442351
0.010577891 0.0024598879 0.051433038
-0.010403783 0.0034721449 0.051418021
-0.0088061485 0.0035187635 0.051515561
0.0087988274 0.0034614499 0.051469777
0.010341946 0.0034989419 0.051477935
-0.010116748 0.0043445798 0.051438
-0.0099395057 0.0048452779 0.051536117
-0.0084247934 0.0045315954 0.051489923
0.0084155807 0.0044808667 0.051526695
0.0099121872 0.0048126755 0.051555552
0.010124572 0.004303996 0.051548216
-0.0096488772 0.0054943077 0.051519841
-0.0081184236 0.0051709488 0.051537339
-0.0077641057 0.005720445 0.05147421
0.007776232 0.0056820419 0.051412489
0.0080831973 0.0051803533 0.051501881
0.0095838886 0.0055442238 0.051513266
-0.0091797123 0.0063368184 0.051482566
-0.0088901976 0.0068296939 0.051584639
-0.0073600681 0.0061139739 0.051574044
-0.0068191602 0.0066684843 0.051499691
0.0067658233 0.0067565539 0.051550314
0.0073038242 0.0063081249 0.051524937
0.0088469665 0.0067878324 0.051462743
0.0091810739 0.0062934761 0.051446721
-0.008400335 0.0074571259 0.051505402
-0.0079767946 0.0079823146 0.051597387
-0.0062620039 0.0073225992 0.051417436
-0.0057133534 0.0077810502 0.051548291
0.0055233068 0.0077731553 0.051463995
0.0062635331 0.0072989259 0.051563263
0.0079557439 0.007936025 0.051541451
0.0083945449 0.0074348017 0.051486719
-0.0075097731 0.0084531922 0.051543165
-0.0069479859 0.0089582559 0.051500078
-0.0052531962 0.0081524225 0.051548298
-0.004436675 0.0086702304 0.051474538
-0.0039022372 0.0089613516 0.051546901
0.0038829625 0.0089542912 0.051463593
0.0044911266 0.008614067 0.051427927
0.00517557 0.0081720492 0.05155563
0.0069503733 0.0089441668 0.051400784
0.0074528153 0.008463392 0.051512349
-0.0064621577 0.0093584983 0.051472679
-0.0057637133 0.0098293414 0.051415212
-0.0040322887 0.0095129488 0.051970243
-0.0034972331 0.0092749875 0.051641803
-0.0024843449 0.0094773956 0.051446844
-0.0015094969 0.0097028557 0.051526539
-0.00055831933 0.009812193 0.051430546
0.00052240159 0.0098105548 0.051445708
0.0014779207 0.0096999668 0.051442116
0.0025175915 0.0094606299 0.051545739
0.0035258578 0.0093100993 0.051644344
0.0040283757 0.0097643277 0.05196299
0.0057393704 0.0098411515 0.051506653
0.0064383191 0.0093231844 0.051552322
-0.0052404883 0.010151333 0.051461294
-0.0044260323 0.010515096 0.051601328
-0.0036663744 0.010667571 0.051646322
0.0036143383 0.010621662 0.051694442
0.0044818926 0.010472965 0.051502757
0.0052642445 0.010114978 0.051498756
-0.0031635929 0.011051575 0.051489454
-0.0025254311 0.011197038 0.051534295
-0.0014832107 0.01140969 0.051552318
-0.00047901922 0.011495003 0.051570304
0.00048188071 0.011503468 0.051508758
0.0015236983 0.011405206 0.051466692
0.0024982272 0.011217644 0.051511459
0.0031482256 0.011047018 0.051521905
-0.0043786434 -0.0090448475 0.052520882
-0.0031873216 -0.0093205804 0.052490797
-0.0025129283 -0.0096453801 0.052478258
-0.0015041509 -0.0098519707 0.05256141
-0.00052448991 -0.0099428287 0.052522674
0.00044207167 -0.0099563384 0.052511822
0.0015089478 -0.0098544061 0.052506972
0.0024880739 -0.0096671069 0.052467197
0.0031546052 -0.0093156537 0.052475773
0.0043201451 -0.0090449471 0.052492779
-0.0060954792 -0.0080614639 0.052411109
-0.0055098883 -0.0084246127 0.05256778
-0.0044301343 -0.0085702278 0.052474357
-0.0033016985 -0.0084449165 0.05242724
-0.002161348 -0.008026544 0.052370995
-0.0014662886 -0.0081684273 0.052479599
-0.00044807894 -0.0082752528 0.052475516
0.00047858286 -0.0082741948 0.05256163
0.0015069187 -0.0081560519 0.05244226
0.002127677 -0.0080357837 0.05259046
0.0032455856 -0.008515385 0.052530158
0.0044167754 -0.0086361524 0.052489918
0.0054956661 -0.0084328428 0.052504294
0.0060664495 -0.008061043 0.05253768
-0.0072077368 -0.0071656401 0.052509792
-0.0066155326 -0.0076851561 0.052463237
-0.004266988 -0.0074212286 0.052448269
-0.0032507316 -0.0077765705 0.052486591
-0.0026766986 -0.0078857066 0.052448906
0.0026396543 -0.0078792963 0.052468192
0.0032853819 -0.0077849384 0.052419987
0.0042465408 -0.0074112625 0.052462935
0.0065670586 -0.0076893866 0.052524958
0.007210257 -0.0071725785 0.052514974
-0.0081643322 -0.0061869738 0.052561261
-0.0076849465 -0.0067351284 0.05248747
-0.0060188742 -0.0060241469 0.052589998
-0.0054417294 -0.006370008 0.052493311
-0.0048293159 -0.0068930052 0.052525122
0.0048203715 -0.0068850699 0.052513972
0.0055031171 -0.0063834963 0.052489117
0.0076909177 -0.006675987 0.052551519
0.0081629762 -0.0061782082 0.052452393
-0.0090322159 -0.0050623468 0.052664112
-0.0086756088 -0.0055502574 0.052463248
-0.0065277908 -0.0055135461 0.052545059
0.0059836525 -0.005995153 0.052427247
0.0064757965 -0.0055348421 0.052506447
0.0086688446 -0.0055145998 0.052448068
0.0090129925 -0.0050064321 0.052817553
-0.0093520861 -0.0044791987 0.052500408
-0.0074683372 -0.0045901448 0.052533865
0.006930456 -0.0048033996 0.052607954
0.007461241 -0.0044370731 0.052542001
0.0093208486 -0.0045063035 0.052549057
-0.010018889 -0.00307074 0.05247201
-0.0098239891 -0.0035822459 0.052456126
-0.0082247118 -0.0034215488 0.0525674
-0.0079381652 -0.0039274893 0.052473795
0.0079272818 -0.0038803504 0.05256037
0.0082057519 -0.0033863031 0.052555416
0.0097783245 -0.0035619335 0.052454799
0.010014456 -0.0030446837 0.052494805
-0.010218735 -0.0025049758 0.05255517
-0.00862455 -0.0025024519 0.052486707
0.0085920366 -0.002487974 0.052453529
0.010194023 -0.0025033546 0.052532751
-0.010501355 -0.0014616753 0.052482385
-0.0090298448 -0.0011392953 0.052564502
-0.008910981 -0.0016427925 0.052532796
0.0088891806 -0.0015281037 0.052457888
0.0090051601 -0.0010350422 0.052404519
0.010456913 -0.0015107245 0.052472815
-0.010665472 -0.00049092382 0.052483104
-0.009137366 -0.00053825736 0.052510478
0.0091077462 -0.00050089508 0.05250863
0.010626093 -0.00047603037 0.052487802
-0.010729941 0.00050960912 0.052519832
-0.0092265094 0.00050315948 0.052485429
0.0091871889 0.00046086128 0.052575976
0.010706577 0.00051678909 0.052470654
-0.010721885 0.0015023272 0.052512102
-0.0092005618 0.0015079459 0.052513834
0.0091673778 0.001495499 0.052539855
0.010673222 0.0014722795 0.052446164
-0.01059048 0.0024964744 0.052467398
-0.0090855295 0.0023760437 0.052440692
-0.0089679919 0.0028930269 0.052416988
0.0089607397 0.0028393548 0.052400891
0.0090635484 0.0023485092 0.052532367
0.010577962 0.0024650726 0.052499399
-0.010387799 0.0035258255 0.052472506
-0.0088069411 0.0035160861 0.05249824
0.0087732421 0.0035384353 0.052500974
0.010343867 0.0034917761 0.052527271
-0.010105368 0.0043758466 0.052420441
-0.0099462168 0.0048262812 0.0523705
-0.0084386971 0.0044970503 0.052481327
0.0083977189 0.0045208274 0.05251487
0.0099213421 0.0047924225 0.052408278
0.010114605 0.0043257363 0.052513245
-0.0096320454 0.0055248514 0.052513812
-0.008102091 0.0051995488 0.052477408
-0.0077995118 0.0056783538 0.052551337
0.0077973623 0.0056477804 0.052467693
0.0080905799 0.0051657488 0.052356679
0.0096051721 0.0054959548 0.052481547
-0.0091774734 0.0063408231 0.05249181
-0.0088876206 0.0068358239 0.052538164
-0.0073036971 0.0061077941 0.052544881
-0.0068736165 0.0066097993 0.052437615
0.0067716944 0.0067616613 0.052503016
0.0073458869 0.006285653 0.052477017
0.008856318 0.0067739999 0.052495271
0.0091846287 0.0062881755 0.052467883
-0.0083829928 0.0074781668 0.052471537
-0.0079812771 0.0079761147 0.052603196
-0.0063102976 0.0072924793 0.05253356
-0.0057299645 0.0077777803 0.052455179
0.0056059253 0.0077370545 0.0524702
0.0062988754 0.007273464 0.052500464
0.0079477364 0.0079443799 0.052613188
0.0083857346 0.0074428115 0.052506436
-0.0074830176 0.0084777186 0.052500796
-0.0069534937 0.0089528468 0.052413482
-0.0052400939 0.0081723146 0.052456468
-0.0044796886 0.0086707976 0.052522946
0.0039543775 0.008927267 0.052002922
0.004476374 0.0086467704 0.052527774
0.0051948307 0.0081621334 0.052501407
0.006946824 0.0089467904 0.052367419
0.0074186842 0.0084977942 0.052520081
-0.0064401771 0.0093752742 0.05248398
-0.0057488694 0.0098378491 0.052474886
-0.004214034 0.0094733154 0.052512925
-0.0032887955 0.0095012095 0.052432925
-0.0025478078 0.0094670048 0.052380398
-0.0015593003 0.0097035673 0.052465908
-0.00046389832 0.0098266602 0.052483127
0.00048173789 0.0098215509 0.052510235
0.0014975227 0.0097066648 0.052466091
0.0024812636 0.0094789201 0.052490748
0.0032566374 0.009524079 0.052501794
0.0041781305 0.0094494494 0.052448593
0.0057728929 0.0098195923 0.05245797
0.0064533795 0.0093118548 0.052550588
-0.0052460916 0.010147319 0.052452512
-0.0044756052 0.010390079 0.052495588
-0.0032448205 0.010476215 0.052485552
0.0032094731 0.010493464 0.052492857
0.004491779 0.010374037 0.052460548
0.0052220598 0.010137109 0.052444693
-0.0031214391 0.011059826 0.052396469
-0.002479583 0.011206281 0.052574597
-0.001499551 0.011409109 0.052562535
-0.00052471785 0.011492146 0.052581657
0.00045771955 0.011505369 0.052496705
0.0014540376 0.011415106 0.052560691
0.0025246835 0.011210844 0.052466746
0.0031059592 0.011056649 0.05240076
-0.0043478361 -0.0090448037 0.053556595
-0.0031232846 -0.0093051959 0.053545002
-0.0025064477 -0.0096525503 0.053482775
-0.0014905665 -0.009856333 0.053527143
-0.00046726031 -0.0099461721 0.0534462
0.00051320938 -0.0099531868 0.053498231
0.0015156749 -0.0098549118 0.053499628
0.0024613042 -0.0096753789 0.053552888
0.0031060288 -0.0092881639 0.053441748
0.0043029166 -0.0090420255 0.05358585
-0.0060896571 -0.0080650505 0.053629957
-0.0055106203 -0.0084231002 0.053550664
-0.0044043758 -0.0086419173 0.053470261
-0.0032119507 -0.0084873429 0.053476717
-0.002170203 -0.0080351457 0.053559884
-0.0015394551 -0.0081639476 0.053497802
-0.00049622951 -0.0082814861 0.053495597
0.00053266349 -0.0082792621 0.053460758
0.0014483684 -0.0081769107 0.053525116
0.0021682039 -0.0080328705 0.053331614
0.0031711527 -0.0085230218 0.053523343
0.0043888185 -0.0086231595 0.05350215
0.0054966407 -0.0084305881 0.053521767
0.0060923565 -0.0080412468 0.053587735
-0.0071904357 -0.0071808686 0.053505946
-0.0066075856 -0.0076893726 0.053432859
-0.004267992 -0.0074212155 0.05351688
-0.0032116892 -0.0077986117 0.05344338
-0.0026546873 -0.0079024471 0.053464964
0.0026453685 -0.0078871055 0.053523146
0.0031853686 -0.0077931033 0.05351872
0.0042467555 -0.0073936582 0.053546187
0.00656325 -0.0076921461 0.053506892
0.0071922597 -0.0071873539 0.05342136
-0.0081559019 -0.0061973943 0.053523514
-0.0077104461 -0.0067116306 0.0535319
-0.0060241721 -0.0060327426 0.053690005
-0.0054433998 -0.0063920924 0.053480789
-0.0048555005 -0.0068864357 0.053435069
0.0048147528 -0.006899131 0.053573508
0.0055189105 -0.0063815722 0.053485066
0.007704278 -0.0066614463 0.053505793
0.0081520015 -0.0061899456 0.053528231
-0.0090372106 -0.0050523751 0.05347703
-0.0086616119 -0.0055675195 0.053508658
-0.0065328218 -0.0055234176 0.053498086
0.0059934608 -0.0059978347 0.053374916
0.0065172785 -0.0055014282 0.053517163
0.0086769564 -0.0055028652 0.05359704
0.009012687 -0.0050065503 0.053319171
-0.0093551325 -0.0044737612 0.053496547
-0.0074453354 -0.0046189115 0.053486288
0.0069241547 -0.004822039 0.053583056
0.0074309856 -0.0044296877 0.053465761
0.0093219588 -0.0045053465 0.053498313
-0.010027446 -0.0030463825 0.053409535
-0.0098270243 -0.0035800128 0.053463474
-0.0082246866 -0.0034185026 0.053470176
-0.0079465928 -0.0039136601 0.053501129
0.0079206051 -0.0038897817 0.053594042
0.0082112951 -0.0033745628 0.053534932
0.0098053869 -0.0035014877 0.053523663
0.010016955 -0.0030389563 0.053354364
-0.010236816 -0.0024538089 0.053551748
-0.008602201 -0.0025631499 0.053468559
0.0085779745 -0.0025216576 0.053509429
0.010183414 -0.0025416764 0.053485468
-0.010490642 -0.0015231477 0.053530362
-0.0090320073 -0.001129889 0.053564221
-0.0089159664 -0.0016211452 0.053582877
0.008893149 -0.0015111556 0.053559054
0.0090079643 -0.0010224838 0.053542413
0.01046522 -0.0014793799 0.053497568
-0.01067297 -0.00044337197 0.05354917
-0.0091470499 -0.0004770603 0.053492241
0.0091062905 -0.00050418399 0.053527523
0.010620208 -0.00054516643 0.053536091
-0.010729883 0.00047726594 0.053529102
-0.0092259943 0.00047055029 0.053507805
0.0091909664 0.00055680861 0.053514395
0.010705994 0.00049188628 0.053520638
-0.010720231 0.0014980404 0.053444754
-0.0092012994 0.001515867 0.05350212
0.0091692172 0.0014865267 0.053479783
0.010667362 0.0015411396 0.053472001
-0.010590199 0.0024973268 0.05345875
-0.0090840152 0.0023834868 0.05344715
-0.0089746024 0.0028718712 0.053534947
0.0089620911 0.0028334956 0.053434134
0.0090640159 0.0023528016 0.053576637
0.01057309 0.0024962076 0.05348935
-0.010404345 0.0034686485 0.053451657
-0.0088134799 0.0034924322 0.053530037
0.0087652327 0.0035685678 0.053465936
0.010342486 0.0034965645 0.053536586
-0.010128182 0.0043113078 0.053518988
-0.0099386498 0.0048476974 0.053389318
-0.0084416531 0.0044896016 0.053535171
0.0084002698 0.0045153792 0.053539444
0.0099166641 0.0048027718 0.053454403
0.010116993 0.0043213437 0.053477585
-0.0096449368 0.0055010207 0.053435553
-0.0081093721 0.0051848008 0.053509656
-0.0077987215 0.0056946441 0.053587407
0.0077910996 0.0056576007 0.053489555
0.0080933273 0.0051612193 0.053476207
0.0096140737 0.0054755686 0.053516008
-0.0091967415 0.0063063321 0.053455554
-0.0088965101 0.0068217604 0.053453095
-0.007310546 0.0061085406 0.053495016
-0.0068482007 0.0066511105 0.053577717
0.0068087536 0.0067326585 0.053474825
0.0073350449 0.0062766634 0.053526651
0.0088619217 0.0067657055 0.053501219
0.0091854325 0.0062870011 0.053480741
-0.008407848 0.0074470318 0.05353361
-0.0079775695 0.0079801064 0.053535178
-0.006319508 0.0072933896 0.053487916
-0.0057436996 0.0077776825 0.053437438
0.0055636326 0.0077630607 0.053487878
0.0063115694 0.0072756992 0.053562041
0.0079444842 0.0079477718 0.053462863
0.0083627785 0.0074702334 0.053522874
-0.0074713109 0.008488249 0.053535245
-0.0069537046 0.0089519462 0.053572208
-0.0052230167 0.0081965225 0.053478427
-0.0045105433 0.0086568817 0.053557359
0.0044634417 0.0086586755 0.053511787
0.0051875808 0.0081948377 0.05354394
0.0069104736 0.0089736748 0.053481076
0.0074934196 0.0084203044 0.053501237
-0.0064793676 0.0093444167 0.05346518
-0.005746224 0.0098389024 0.053440757
-0.0041829301 0.0095039932 0.053476386
-0.0032185705 0.0095290076 0.05349556
-0.0024749192 0.0094989566 0.053453695
-0.0015026981 0.0097218156 0.053467393
-0.00054145593 0.0098302299 0.053478464
0.00047261899 0.0098308418 0.053512674
0.0014987601 0.009715016 0.053469632
0.0025084019 0.0094806608 0.053481579
0.0031952467 0.0095482888 0.053475946
0.0041466965 0.0095118098 0.053510536
0.0057305074 0.0098479809 0.053496942
0.0064327153 0.0093271127 0.053507064
-0.0052464572 0.010146604 0.05344478
-0.0044400464 0.010409811 0.053507105
-0.0031656183 0.010531872 0.053526297
0.0031328918 0.010526893 0.053498227
0.0044201794 0.010390473 0.053527411
0.00526059 0.010116896 0.053425096
-0.0030638219 0.011072669 0.053487688
-0.002498989 0.011204944 0.053501453
-0.0015551765 0.011396607 0.053497996
-0.00047400786 0.011495417 0.053549293
0.00049066677 0.011504118 0.053530034
0.0015387136 0.011405222 0.053450838
0.0025043627 0.01121577 0.053529777
0.0030631565 0.011065099 0.053475879
-0.0042982535 -0.0090619912 0.05457779
-0.003074433 -0.0093005318 0.054537378
-0.0025011429 -0.0096606528 0.054536868
-0.0014813403 -0.0096550314 0.054530468
-0.00052263244 -0.009617717 0.054511063
0.00046904478 -0.0096075973 0.054535419
0.0015448652 -0.0096509214 0.05460022
0.0025511617 -0.0096515389 0.05446982
0.0030445908 -0.0092918305 0.054462038
0.0042777839 -0.0090599051 0.054514643
-0.0060914587 -0.0080639413 0.054507419
-0.0054719383 -0.0084477374 0.054490231
-0.0044242525 -0.0086512128 0.054508355
-0.0031484189 -0.0085048629 0.05450438
-0.0021805987 -0.008040078 0.054398138
-0.0014750086 -0.0081844097 0.054499757
-0.0004757953 -0.0082911085 0.054493874
0.00051279081 -0.0082896128 0.054539043
0.0015613892 -0.0081646405 0.054506026
0.0021394982 -0.0080491165 0.054437976
0.0031177124 -0.0084579913 0.054503649
0.004366159 -0.0086643491 0.05449396
0.0055118673 -0.0084236208 0.05449133
0.0060573523 -0.00806663 0.054424372
-0.0071961088 -0.0071758749 0.054524511
-0.006602949 -0.0076935934 0.054424375
-0.0042741154 -0.0073753232 0.05455621
-0.0031633677 -0.0078241238 0.054498512
-0.0026916594 -0.0078997333 0.054466855
0.0026453901 -0.0078958273 0.054474618
0.0031389899 -0.0078050443 0.05447454
0.0042003663 -0.0074041649 0.054554168
0.0065553184 -0.0076972246 0.054479372
0.0071994816 -0.0071809241 0.054540034
-0.0081655011 -0.0061848159 0.054529544
-0.0077244602 -0.0066930884 0.054479357
-0.0060347621 -0.0060320236 0.05441606
-0.0054723229 -0.0063438849 0.054488983
-0.0048370031 -0.0069081713 0.054472309
0.004823789 -0.006903688 0.05455225
0.0055026282 -0.0064057121 0.054499067
0.0076732961 -0.0066931578 0.054483637
0.0081770811 -0.0061626672 0.054505911
-0.0090265749 -0.0050712889 0.054430775
-0.0086830352 -0.0055409693 0.054532845
-0.0070077856 -0.0050081201 0.054293822
-0.0065932567 -0.0054704831 0.054490838
0.0065100216 -0.0055203731 0.054517359
0.0086366413 -0.0055598118 0.054516718
-0.0093221227 -0.0045329179 0.054511402
-0.007526401 -0.0045146416 0.054510903
0.0069261654 -0.0048060194 0.054517552
0.0074631958 -0.0044237585 0.054464016
0.0093053263 -0.0045332941 0.05449681
-0.010016298 -0.0030779317 0.054453641
-0.0098363394 -0.003549319 0.054564979
-0.0082416758 -0.0033883885 0.05451975
-0.007937802 -0.0039275158 0.05449998
0.0079217497 -0.0038864913 0.05453001
0.0082031209 -0.0033907532 0.054535206
0.0098019997 -0.0035096256 0.054534893
0.010005462 -0.0030652927 0.054671943
-0.010205566 -0.002542254 0.054501373
-0.0086284904 -0.0024946202 0.05447964
0.0085821459 -0.002510692 0.054549579
0.01019977 -0.0024796987 0.05447017
-0.010492944 -0.0015107417 0.054574054
-0.0090277987 -0.0011483654 0.054435842
-0.0089047868 -0.0016634826 0.054546718
0.0088944519 -0.001507081 0.054507937
0.0090042613 -0.001039071 0.054893091
