# .PCD v0.7 - Point Cloud Data file format
VERSION 0.7
FIELDS x y z rgba
SIZE 4 4 4 4
TYPE F F F U
COUNT 1 1 1 1
WIDTH 1053
HEIGHT 1
VIEWPOINT 0 0 0 1 0 0 0
POINTS 1053
DATA ascii
0.021279532 -0.0052677402 0.47500002 7955833
-0.0005484494 -0.0045066187 0.47550002 7233912
0.022091804 -0.0045113578 0.47600001 6179676
-0.00093235867 -0.0037438858 0.47600001 5061972
0.022045393 -0.0037360205 0.47500002 6771813
-0.00093235867 -0.0025926775 0.47600001 4864848
0.022587979 -0.0027185052 0.47566667 6377055
-0.00093039998 -0.0014384411 0.47500002 4996179
0.022811253 -0.0014384411 0.47500002 7034215
0.023626748 -0.0014414693 0.47600001 6836834
-0.0016998308 -0.00067399733 0.47600001 6115680
-0.00093039998 -0.00067258137 0.47500002 4996947
0.023626748 -0.00067399733 0.47600001 7100006
-0.0016998308 0.00047721079 0.47600001 6181214
-0.00093039998 9.3278388e-05 0.47500002 5128533
0.023577113 9.3278388e-05 0.47500002 7165801
0.02439422 0.00047721079 0.47600001 7034726
-0.0016962597 0.0016249979 0.47500002 6707301
0.024342973 0.0016249979 0.47500002 7100776
0.025161691 0.0016284189 0.47600001 6969190
-0.0024673028 0.0023958911 0.47600001 6575715
-0.0016962597 0.0023908578 0.47500002 6838887
0.025161691 0.0023958911 0.47600001 7034983
-0.0024647112 0.0035429699 0.47550002 6509921
0.025382275 0.0036700431 0.47533336 6903397
-0.0024621193 0.0046884371 0.47500002 6509920
0.025518999 0.0046933722 0.47550002 6837604
0.025518999 0.0054600378 0.47550002 7100774
0.025874691 0.0066030864 0.47500002 7034981
0.0057310811 -0.039386 0.47700003 16711422
0.0067565269 -0.039514177 0.47700003 16711422
0.0075256112 -0.039514177 0.47700003 16711422
0.008294696 -0.039514177 0.47700003 16711422
0.0094483225 -0.03951418 0.47700003 16711422
0.010601949 -0.039129637 0.47700003 16711422
0.0044492739 -0.038360551 0.47700003 16711422
0.0056029004 -0.038360551 0.47700003 16711422
0.0067565269 -0.038360551 0.47700003 16711422
0.0075256112 -0.038360551 0.47700003 16711422
0.008294696 -0.038360551 0.47700003 16711422
0.0094483225 -0.038360551 0.47700003 16711422
0.010601949 -0.038360551 0.47700003 16711422
0.0036801894 -0.037591465 0.47700003 16711422
0.0044492739 -0.037591465 0.47700003 16711422
0.0052183582 -0.037591465 0.47700003 16711422
0.010601949 -0.037591465 0.47700003 16711422
0.011371033 -0.037591465 0.47700003 16711422
0.0029111048 -0.036053296 0.47700003 16711422
0.0036801894 -0.036437839 0.47700003 16711422
0.0044492739 -0.036822382 0.47700003 16711422
0.011371033 -0.036822382 0.47700003 16711422
0.012140119 -0.036053296 0.47700003 16711422
0.0029111048 -0.035284214 0.47700003 16711422
0.0036801894 -0.035284214 0.47700003 16711422
0.012909202 -0.035284214 0.47700003 16711422
0.0029111048 -0.034515128 0.47700003 13681107
0.0036801894 -0.034515128 0.47700003 15918069
0.012909202 -0.034515128 0.47700003 16711422
0.013678287 -0.034515128 0.47700003 16711422
0.0029111048 -0.033746045 0.47700003 13548240
0.0036801894 -0.033746045 0.47700003 13679826
0.013678287 -0.033746045 0.47700003 16711422
0.0029111048 -0.03259242 0.47700003 14996450
0.014447371 -0.032207876 0.47700003 16711422
0.0029111048 -0.03143879 0.47700003 10323350
0.014447371 -0.03143879 0.47700003 16711422
0.0029111048 -0.030669706 0.47700003 10980766
0.0029111048 -0.029516079 0.47700003 11309211
0.015216456 -0.029516079 0.47700003 16711422
0.0029111048 -0.028362453 0.47700003 11243669
0.0025265627 -0.027593369 0.47700003 11177623
0.015985539 -0.027593369 0.47700003 16711422
0.0021420203 -0.026439741 0.47700003 11243416
0.016754625 -0.0260552 0.47700003 16776959
0.0021420203 -0.025286116 0.47700003 11046037
0.016754625 -0.025286116 0.47700003 16711422
0.0021420203 -0.024517031 0.47700003 10981014
0.0013729359 -0.023747947 0.47700003 14867678
0.01752371 -0.023747947 0.47700003 16776447
0.0013729359 -0.022594318 0.47700003 16184306
0.0013729359 -0.021440694 0.47700003 16711675
0.018292794 -0.021440694 0.47700003 15984630
0.0013729359 -0.02067161 0.47700003 16711422
0.018292794 -0.02067161 0.47700003 15589872
0.00060385145 -0.019133439 0.47700003 16711422
0.0013729359 -0.019902525 0.47700003 16711422
0.00060385145 -0.018364355 0.47700003 16711422
0.00060385145 -0.017595271 0.47700003 16711422
0.019061878 -0.017595271 0.47700003 15985139
-0.00016523298 -0.016057102 0.47700003 16711422
0.019061878 -0.016057102 0.47700003 16249848
-0.00016523298 -0.015288018 0.47700003 16711423
-0.00093431748 -0.013749849 0.47700003 8681616
-0.00093431748 -0.012596222 0.47700003 6904435
0.020600047 -0.010673511 0.47700003 6047836
0.021369131 -0.0091353422 0.47700003 6113113
0.021369131 -0.0083662579 0.47700003 5719125
0.021369131 -0.0075971731 0.47700003 5653591
0.022138216 -0.006059004 0.47700003 6574947
0.022138216 -0.0052899201 0.47700003 6574180
0.0229073 -0.0037517513 0.47700003 7166571
-0.0017034018 -0.0025981246 0.47700003 6180704
0.023676386 -0.0022135822 0.47700003 6836834
-0.0017034018 -0.0014444977 0.47700003 5786715
0.024445469 -0.00067541329 0.47700003 6969190
0.025214553 0.00086275558 0.47700003 6903397
0.025983637 0.00163184 0.47700003 6969190
0.025983637 0.0024009245 0.47700003 7034983
0.0059999945 -0.043065149 0.47800002 16711422
0.0067706914 -0.043065149 0.47800002 16711422
0.0075413883 -0.043065149 0.47800002 16711422
0.0044586011 -0.042294454 0.47800002 16711422
0.0056146462 -0.042294454 0.47800002 16711422
0.0067706914 -0.042294454 0.47800002 16711422
0.0075413883 -0.042294454 0.47800002 16711422
0.0083120856 -0.042294454 0.47800002 16711422
0.0090827821 -0.042294454 0.47800002 16711422
0.0044586011 -0.041523758 0.47800002 16711422
0.0056146462 -0.041523758 0.47800002 16711422
0.0067706914 -0.041523758 0.47800002 16711422
0.0075413883 -0.041523758 0.47800002 16711422
0.0083120856 -0.041523758 0.47800002 16711422
0.0094681308 -0.041523758 0.47800002 16711422
0.010624175 -0.041523758 0.47800002 16711422
0.0036879044 -0.040753063 0.47800002 16711422
0.0044586011 -0.040753063 0.47800002 16711422
0.0056146462 -0.040753063 0.47800002 16711422
0.0067706914 -0.040753063 0.47800002 16711422
0.0075413883 -0.040753063 0.47800002 16711422
0.0083120856 -0.040753063 0.47800002 16711422
0.0094681308 -0.040753063 0.47800002 16711422
0.010624175 -0.040753063 0.47800002 16711422
0.0029172078 -0.039597016 0.47800002 16711422
0.0036879044 -0.039597016 0.47800002 16711422
0.0044586011 -0.039597016 0.47800002 16711422
0.005229298 -0.039982364 0.47800002 16711422
0.010624175 -0.039982364 0.47800002 16711422
0.011394871 -0.039597016 0.47800002 16711422
0.0029172078 -0.038440969 0.47800002 16711422
0.0036879044 -0.038440969 0.47800002 16711422
0.011394871 -0.038440969 0.47800002 16711422
0.0025318593 -0.037670273 0.47800002 16711422
0.012165569 -0.037670273 0.47800002 16711422
0.0013758142 -0.036128879 0.47800002 16711422
0.0024034099 -0.036642682 0.47800002 16711422
0.012679365 -0.036642678 0.47800002 16711422
0.0013758142 -0.035358183 0.47800002 16776703
0.0021465109 -0.035358183 0.47800002 16776959
0.013706963 -0.035358183 0.47800002 16711422
0.0013758142 -0.034587488 0.47800002 13877205
0.0021465109 -0.034587488 0.47800002 13548751
0.0013758142 -0.033431441 0.47800002 14666720
0.0021465109 -0.033431441 0.47800002 14666462
0.014477659 -0.033046093 0.47800002 16711422
0.0013758142 -0.032275397 0.47800002 15455719
0.0021465109 -0.032275397 0.47800002 15522282
0.0013758142 -0.031504698 0.47800002 13349828
0.0021465109 -0.031504698 0.47800002 11309731
0.015248355 -0.031504698 0.47800002 16711422
0.0013758142 -0.030734003 0.47800002 11047073
0.0021465109 -0.030734003 0.47800002 10387857
0.015248355 -0.030734003 0.47800002 16711422
0.0013758142 -0.029577957 0.47800002 10389649
0.0021465109 -0.029577957 0.47800002 11374489
0.0013758142 -0.028421912 0.47800002 10390674
0.0021465109 -0.028421912 0.47800002 11572634
0.016019052 -0.028421912 0.47800002 16711422
0.0013758142 -0.027651217 0.47800002 10654359
0.0013758142 -0.02649517 0.47800002 11248037
0.016789749 -0.026880519 0.47800002 16776959
0.0013758142 -0.025339125 0.47800002 13551048
0.0013758142 -0.024568429 0.47800002 14011599
0.017560447 -0.024568429 0.47800002 16775935
0.00060511741 -0.023027034 0.47800002 16711422
0.018331142 -0.023027034 0.47800002 15589358
0.00060511741 -0.022256339 0.47800002 16711422
0.018331142 -0.022256339 0.47800002 15655411
0.00060511741 -0.021485642 0.47800002 16711422
0.00060511741 -0.020714946 0.47800002 16711422
0.00060511741 -0.019944249 0.47800002 16711423
0.01910184 -0.019173551 0.47800002 15655661
-0.00016557937 -0.018402854 0.47800002 16711422
0.01910184 -0.018402854 0.47800002 16050419
-0.00016557937 -0.017632158 0.47800002 16711422
-0.00016557937 -0.016861461 0.47800002 16711422
-0.00093627616 -0.015320067 0.47800002 11445172
-0.00093627616 -0.014549371 0.47800002 9603486
-0.0017069728 -0.013007977 0.47800002 5061456
-0.0017069728 -0.012237281 0.47800002 4995663
0.020643234 -0.012237281 0.47800002 8021110
-0.0017069728 -0.011466583 0.47800002 4732237
0.020643234 -0.011466583 0.47800002 10653346
-0.0017069728 -0.010695887 0.47800002 4601421
-0.0017069728 -0.0095398426 0.47800002 5062478
0.02141393 -0.0099251904 0.47800002 6113113
-0.0017069728 -0.0083837975 0.47800002 5326164
-0.0017069728 -0.0076131001 0.47800002 5194578
-0.0017069728 -0.006457055 0.47800002 5259857
0.022184625 -0.0068424032 0.47800002 6114144
-0.0017069728 -0.0053010099 0.47800002 5128017
-0.0017069728 -0.0045303134 0.47800002 5391189
0.022955323 -0.0045303134 0.47800002 6640227
-0.0017069728 -0.0037596163 0.47800002 6246752
0.02372602 -0.0029889196 0.47800002 6706018
0.024496717 -0.0022182227 0.47800002 6640225
0.024496717 -0.0014475259 0.47800002 6706018
0.025267413 -0.00067682925 0.47800002 7034983
0.025267413 9.3867515e-05 0.47800002 6969190
0.0063987016 -0.045472171 0.47900003 16711422
0.0075571653 -0.045472171 0.47900003 16711422
0.0044679292 -0.044699863 0.47900003 16711422
0.0052402383 -0.044699863 0.47900003 16711422
0.0063987016 -0.044699863 0.47900003 16711422
0.0075571653 -0.044699863 0.47900003 16711422
0.0083294753 -0.044699863 0.47900003 16711422
0.00369562 -0.043541402 0.47900003 16711422
0.0044679292 -0.043541402 0.47900003 16711422
0.0052402383 -0.043541402 0.47900003 16711422
0.0063987016 -0.043927554 0.47900003 16711422
0.0075571653 -0.043927554 0.47900003 16711422
0.0083294753 -0.043541402 0.47900003 16711422
0.0094879381 -0.043541402 0.47900003 16711422
0.010646402 -0.043155245 0.47900003 16711422
0.0029233107 -0.042382937 0.47900003 16711422
0.00369562 -0.042382937 0.47900003 16711422
0.0098740924 -0.042382937 0.47900003 16711422
0.010646402 -0.042382937 0.47900003 16711422
0.0029233107 -0.041610628 0.47900003 16711422
0.00369562 -0.041610628 0.47900003 16711422
0.01141871 -0.041610628 0.47900003 16711422
0.0024084379 -0.040580884 0.479 16711422
0.01141871 -0.04083832 0.47900003 16711422
0.01219102 -0.040066011 0.47900003 16711422
0.0021510015 -0.039293703 0.47900003 16711422
0.01219102 -0.039293703 0.47900003 16711422
0.0013786925 -0.03852139 0.47900003 16711422
0.0021510015 -0.03852139 0.47900003 16711422
0.01219102 -0.03852139 0.47900003 16711422
0.0013786925 -0.037749082 0.47900003 16711422
0.012963329 -0.037749082 0.47900003 16711422
0.013735639 -0.037749082 0.47900003 16711422
0.0013786925 -0.036976773 0.47900003 16711422
0.013735639 -0.036590621 0.47900003 16711422
0.014507947 -0.034659848 0.47900003 16711422
0.00060638337 -0.033501387 0.47900003 14140378
0.014507947 -0.033887539 0.47900003 16711422
0.00060638337 -0.032342922 0.47900003 15126502
0.015280256 -0.032342922 0.47900003 16711422
0.00060638337 -0.03157061 0.47900003 16772863
0.00060638337 -0.030025991 0.47900003 16776191
0.016052565 -0.030025991 0.47900003 16711422
0.016052565 -0.029253682 0.47900003 16711422
0.016824875 -0.027709065 0.47900003 16513788
0.00060638337 -0.026550602 0.47900003 16711422
0.017597184 -0.026164446 0.47900003 16774911
0.00060638337 -0.025392137 0.47900003 16711422
0.017597184 -0.025392137 0.47900003 16775679
0.00060638337 -0.024619829 0.47900003 16711422
0.00060638337 -0.02384752 0.47900003 16711422
0.018369492 -0.02384752 0.47900003 15326184
0.019141801 -0.021530591 0.47900003 12037050
-0.00016592578 -0.020758282 0.47900003 16711422
0.019141801 -0.020758282 0.47900003 14010840
-0.00016592578 -0.019599818 0.47900003 16711422
0.019141801 -0.019985974 0.47900003 14602975
-0.00093823491 -0.016510583 0.47900003 12827851
-0.001710544 -0.014579809 0.47900003 5062226
-0.001710544 -0.013807501 0.47900003 4930640
0.020686422 -0.013035191 0.47900003 7165801
0.02145873 -0.010718264 0.47900003 6178906
-0.0024828531 -0.0095597999 0.47900003 6115674
0.022231039 -0.0084013371 0.47900003 6442848
0.022231039 -0.0076290271 0.47900003 6048349
0.023003347 -0.0060844091 0.47900003 6245982
0.023003347 -0.0053121001 0.47900003 6903145
0.023775658 -0.004539791 0.47900003 6706531
0.023775658 -0.0037674818 0.47900003 7035496
0.024547966 -0.0029951727 0.47900003 6838117
0.0067990208 -0.049436711 0.48000002 16711422
0.0075729419 -0.049436711 0.48000002 16711422
0.0067990208 -0.048662789 0.48000002 16711422
0.0075729419 -0.048662789 0.48000002 16711422
0.008346864 -0.048662789 0.48000002 16711422
0.0044772564 -0.04711495 0.48000002 16711422
0.0052511781 -0.04711495 0.48000002 16711422
0.00641206 -0.04750191 0.48000002 16711422
0.0075729419 -0.04750191 0.48000002 16711422
0.008346864 -0.04750191 0.48000002 16711422
0.0093787583 -0.047372922 0.48000002 16711422
0.0029294137 -0.046341028 0.48000002 16711422
0.0037033351 -0.046341028 0.48000002 16711422
0.0044772564 -0.046341028 0.48000002 16711422
0.0052511781 -0.046341028 0.48000002 16711422
0.00641206 -0.046341028 0.48000002 16711422
0.0075729419 -0.046341028 0.48000002 16711422
0.008346864 -0.046341028 0.48000002 16711422
0.0095077455 -0.046341028 0.48000002 16711422
0.010668628 -0.046341028 0.48000002 16711422
0.0029294137 -0.045567103 0.48000002 16711422
0.0037033351 -0.045567103 0.48000002 16711422
0.0044772564 -0.045567103 0.48000002 16711422
0.0052511781 -0.045567103 0.48000002 16711422
0.008346864 -0.045567103 0.48000002 16711422
0.0095077455 -0.045567103 0.48000002 16711422
0.010668628 -0.045567103 0.48000002 16711422
0.0025424529 -0.04440622 0.48000002 16711422
0.0037033351 -0.044793181 0.48000002 16711422
0.0095077455 -0.044793181 0.48000002 16711422
0.010668628 -0.04440622 0.48000002 16711422
0.01144255 -0.04440622 0.48000002 16711422
0.0025424529 -0.043245342 0.48000002 16711422
0.01144255 -0.043245342 0.48000002 16711422
0.0013815707 -0.04247142 0.48000002 16711422
0.0021554921 -0.04247142 0.48000002 16711422
0.01144255 -0.04247142 0.48000002 16711422
0.012216471 -0.04247142 0.48000002 16711422
0.0013815707 -0.041697498 0.48000002 16711422
0.0021554921 -0.041697498 0.48000002 16711422
0.012216471 -0.041697498 0.48000002 16711422
0.0013815707 -0.040536616 0.48000002 16711422
0.012732419 -0.0406656 0.48000002 16711422
0.0013815707 -0.039375734 0.48000002 16711422
0.012990392 -0.039375734 0.48000002 16711422
0.013764314 -0.039375734 0.48000002 16711422
0.00060764927 -0.038601808 0.48000002 16776959
0.012990392 -0.038601808 0.48000002 16711422
0.013764314 -0.038601808 0.48000002 16711422
0.00060764927 -0.03744093 0.48000002 16776959
0.00060764927 -0.036280047 0.48000002 16776191
0.00060764927 -0.035506126 0.48000002 16775423
0.014538235 -0.035506126 0.48000002 16711422
0.00060764927 -0.034732204 0.48000002 16049403
0.015312156 -0.033184364 0.48000002 16711422
-0.00016627218 -0.030475635 0.48000002 16775167
0.00060764927 -0.030862596 0.48000002 16775167
0.016086077 -0.030862596 0.48000002 16711422
-0.00016627218 -0.029314755 0.48000002 16776702
0.00060764927 -0.029314755 0.48000002 16776702
-0.00016627218 -0.028540833 0.48000002 16776702
0.00060764927 -0.028540833 0.48000002 16776702
0.016860001 -0.028540833 0.48000002 16776959
-0.00016627218 -0.027766911 0.48000002 16776958
0.00060764927 -0.027766911 0.48000002 16776958
-0.00016627218 -0.026606031 0.48000002 16711422
0.017633921 -0.026992992 0.48000002 16511485
-0.00016627218 -0.025445146 0.48000002 16711422
-0.00016627218 -0.024671227 0.48000002 16711422
0.018407842 -0.024671227 0.48000002 14338519
-0.00016627218 -0.023510344 0.48000002 16711422
-0.00016627218 -0.022349462 0.48000002 16711422
0.019181764 -0.022349462 0.48000002 10852522
-0.00016627218 -0.02157554 0.48000002 16711422
-0.00094019365 -0.020414658 0.48000002 16579071
-0.00094019365 -0.019253775 0.48000002 15395059
0.019955685 -0.019253775 0.48000002 5849687
-0.00094019365 -0.018479854 0.48000002 14737129
0.019955685 -0.018479854 0.48000002 5915480
-0.00094019365 -0.017705932 0.48000002 14012636
0.019955685 -0.017705932 0.48000002 6441826
-0.001714115 -0.016158089 0.48000002 5851488
0.019955685 -0.016932013 0.48000002 7100524
-0.001714115 -0.015384168 0.48000002 5654363
0.020729607 -0.014610247 0.48000002 6441051
-0.0024880364 -0.013062404 0.48000002 6246748
0.020729607 -0.013836326 0.48000002 6638430
-0.0024880364 -0.012288483 0.48000002 6246748
-0.0024880364 -0.011514561 0.48000002 6312795
0.021503529 -0.011514561 0.48000002 6639457
-0.0024880364 -0.01074064 0.48000002 6378588
0.022277448 -0.0091927974 0.48000002 7034215
-0.0024880364 -0.0084188757 0.48000002 6247262
-0.0024880364 -0.0076449541 0.48000002 6905192
0.02305137 -0.0076449541 0.48000002 6706531
0.02305137 -0.0068710325 0.48000002 6838117
0.023825293 -0.0053231898 0.48000002 6903910
0.0083642537 -0.053417373 0.48100004 16580606
0.0068131853 -0.052641839 0.48100004 16711422
0.0075887195 -0.052641839 0.48100004 16711422
0.0083642537 -0.052641839 0.48100004 16580606
0.0065546744 -0.051349282 0.48100004 16711422
0.0075887195 -0.051478542 0.48100004 16711422
0.0083642537 -0.051478542 0.48100004 16711422
0.0093982983 -0.051349282 0.48100004 16645886
0.0052621183 -0.050315239 0.48100004 16711422
0.0064254184 -0.050315239 0.48100004 16711422
0.0075887195 -0.050315239 0.48100004 16711422
0.0083642537 -0.050315239 0.48100004 16711422
0.0095275538 -0.050315239 0.48100004 16711422
0.0044865846 -0.049539708 0.48100004 16711422
0.0052621183 -0.049539708 0.48100004 16711422
0.0060376516 -0.049539708 0.48100004 16711422
0.0083642537 -0.049539708 0.48100004 16711422
0.0095275538 -0.049539708 0.48100004 16711422
0.010690855 -0.049539708 0.48100004 16711422
0.0037110504 -0.048764173 0.48100004 16711422
0.0044865846 -0.048764173 0.48100004 16711422
0.0052621183 -0.048764173 0.48100004 16711422
0.0060376516 -0.048764173 0.48100004 16711422
0.0095275538 -0.048764173 0.48100004 16711422
0.010690855 -0.048764173 0.48100004 16711422
0.0026770055 -0.047471616 0.48100004 16711422
0.0037110504 -0.047600873 0.48100004 16711422
0.0044865846 -0.047988638 0.48100004 16711422
0.0052621183 -0.047988638 0.48100004 16711422
0.0099153202 -0.047988638 0.48100004 16711422
0.010690855 -0.047600873 0.48100004 16711422
0.011466389 -0.047600873 0.48100004 16711422
0.0021599827 -0.046437573 0.48100004 16711422
0.011466389 -0.046437573 0.48100004 16711422
0.0013844491 -0.045662034 0.48100004 16711422
0.0021599827 -0.045662034 0.48100004 16711422
0.011466389 -0.045662034 0.48100004 16711422
0.0013844491 -0.044498734 0.48100004 16711422
0.012241922 -0.044498734 0.48100004 16711422
0.013017456 -0.044110969 0.48100004 16711422
0.0013844491 -0.043335434 0.48100004 16711422
0.012241922 -0.043335434 0.48100004 16711422
0.013017456 -0.043335434 0.48100004 16711422
0.013017456 -0.042559903 0.48100004 16711422
0.00060891523 -0.041396603 0.48100004 16711422
0.013405222 -0.041396603 0.48100004 16711422
0.00060891523 -0.040233303 0.48100004 16776959
0.01379299 -0.040233303 0.48100004 16711422
0.00060891523 -0.039457768 0.48100004 16776959
-0.00016661859 -0.037518933 0.48100004 16776959
0.014568524 -0.037131164 0.48100004 16711422
-0.00016661859 -0.036355633 0.48100004 16775423
0.014568524 -0.036355633 0.48100004 16711422
-0.00016661859 -0.035580099 0.48100004 16247548
-0.00016661859 -0.034416799 0.48100004 15259630
0.015344057 -0.034416799 0.48100004 16711422
-0.00016661859 -0.033253498 0.48100004 14469342
-0.00016661859 -0.032477964 0.48100004 14797537
-0.00016661859 -0.031702429 0.48100004 16377591
0.01611959 -0.031702429 0.48100004 16711422
0.016895125 -0.030151362 0.48100004 16644606
0.016895125 -0.029375827 0.48100004 16578811
0.017670659 -0.027824761 0.48100004 15918835
0.018446192 -0.025498159 0.48100004 13416652
-0.0009421524 -0.023559324 0.48100004 16711423
0.019221725 -0.023171557 0.48100004 8878472
-0.0009421524 -0.022396022 0.48100004 16711167
-0.0009421524 -0.02162049 0.48100004 16645119
0.019997261 -0.02045719 0.48100004 5850714
-0.0017176862 -0.018518355 0.48100004 8615312
-0.0017176862 -0.01774282 0.48100004 7168379
-0.0017176862 -0.016967287 0.48100004 6510449
0.020772794 -0.016191753 0.48100004 5718355
-0.0024932199 -0.015416219 0.48100004 6049371
0.020772794 -0.015416219 0.48100004 5915734
-0.0024932199 -0.014640685 0.48100004 6312543
-0.0024932199 -0.013865152 0.48100004 6312543
0.021548327 -0.013089618 0.48100004 6902116
-0.0032687536 -0.012314084 0.48100004 6246748
0.021548327 -0.012314084 0.48100004 6836836
-0.0032687536 -0.01153855 0.48100004 6510174
-0.0032687536 -0.010763017 0.48100004 6378588
0.022323862 -0.010763017 0.48100004 7165801
-0.0032687536 -0.0095997155 0.48100004 6510432
0.022323862 -0.0099874828 0.48100004 7100008
0.023099395 -0.0092119491 0.48100004 6838115
0.023099395 -0.0084364153 0.48100004 6838117
0.0045052394 -0.054418243 0.48300001 16711422
0.0052839979 -0.054418243 0.48300001 16711422
0.0064387769 -0.054305576 0.48200002 16580606
0.0076044961 -0.054305576 0.48200002 16580606
0.0083816424 -0.054305576 0.48200002 16580606
0.00917779 -0.054418243 0.48300001 16580606
0.0037264808 -0.053639479 0.48300001 16711422
0.0045052394 -0.053639479 0.48300001 16711422
0.0052839979 -0.053639479 0.48300001 16711422
0.0064387769 -0.053528428 0.48200002 16711422
0.0076044961 -0.053528428 0.48200002 16711422
0.0095473612 -0.053528428 0.48200002 16580606
0.010735307 -0.053639479 0.48300001 16580606
0.0025583431 -0.052081965 0.48300001 16711422
0.0037264808 -0.052471343 0.48300001 16711422
0.0044959118 -0.05275128 0.48200002 16711422
0.0052730581 -0.05275128 0.48200002 16711422
0.0060502039 -0.05275128 0.48200002 16711422
0.0095473612 -0.05275128 0.48200002 16580606
0.010735307 -0.052860722 0.48300001 16580606
0.0029477223 -0.051303208 0.48300001 16711422
0.0037187657 -0.051196989 0.48200002 16711422
0.0044959118 -0.051585563 0.48200002 16711422
0.0052730581 -0.051585563 0.48200002 16711422
0.0060502039 -0.051974136 0.48200002 16711422
0.0099359341 -0.051974136 0.48200002 16580606
0.010713081 -0.051585563 0.48200002 16580606
0.011514065 -0.051303208 0.48300001 16580606
0.0025552916 -0.050472148 0.48250002 16711422
0.0037187657 -0.050419845 0.48200002 16711422
0.0044959118 -0.050419845 0.48200002 16711422
0.010713081 -0.050419845 0.48200002 16580606
0.011514065 -0.050524447 0.48300001 16580606
0.0013902055 -0.04974569 0.48300001 16711422
0.0025530464 -0.049642697 0.48200002 16711422
0.0037187657 -0.049642697 0.48200002 16711422
0.011490227 -0.049642697 0.48200002 16580606
0.0013887663 -0.048527669 0.48250002 16711422
0.0024235221 -0.048606504 0.48200002 16711422
0.011490227 -0.048865553 0.48200002 16711422
0.012292824 -0.048577555 0.48300001 16580606
0.00061144709 -0.047409415 0.48300001 16711422
0.0013873273 -0.047311261 0.48200002 16711422
0.012267374 -0.047311261 0.48200002 16711422
0.00061144709 -0.046630658 0.48300001 16711422
0.0013873273 -0.046534117 0.48200002 16711422
0.012267374 -0.046534117 0.48200002 16711422
0.013071582 -0.046630658 0.48300001 16711422
-0.00016731139 -0.045851897 0.48300001 16776703
0.00061018113 -0.045756966 0.48200002 16711422
0.012267374 -0.045756966 0.48200002 16711422
0.013044518 -0.045756966 0.48200002 16711422
0.00061018113 -0.044591248 0.48200002 16711422
0.01344743 -0.044637099 0.48250002 16711422
-0.00016731139 -0.043515623 0.48300001 16776191
0.00061018113 -0.04342553 0.48200002 16711422
0.013821665 -0.04342553 0.48200002 16711422
-0.00016731139 -0.042736866 0.48300001 16711422
0.00061018113 -0.042648382 0.48200002 16711422
0.013821665 -0.042648382 0.48200002 16711422
-0.00016713818 -0.041526098 0.48250002 16645630
0.013821665 -0.041871238 0.48200002 16711422
-0.00016696498 -0.040316947 0.48200002 16776959
0.014629099 -0.040400591 0.48300001 16711422
-0.00016696498 -0.039539799 0.48200002 16776959
0.014629099 -0.039621834 0.48300001 16711422
-0.00068636821 -0.03855668 0.4826667 16183034
0.014598811 -0.038762651 0.48200002 16711422
-0.00094606983 -0.037285555 0.48300001 15458034
0.014598811 -0.037985507 0.48200002 16711422
0.015407857 -0.037285555 0.48300001 16776447
-0.00094606983 -0.036506798 0.48300001 16115450
0.015407857 -0.036506798 0.48300001 16776958
-0.00094606983 -0.035728037 0.48300001 16312829
0.015375957 -0.035654068 0.48200002 16776958
-0.00094411115 -0.03448835 0.48200002 16247551
0.016186615 -0.034170523 0.48300001 16711422
-0.00094411115 -0.033322632 0.48200002 14866158
0.016153103 -0.033322632 0.48200002 16711422
-0.00094411115 -0.032545485 0.48200002 15259889
0.016153103 -0.032545485 0.48200002 16711422
-0.00094411115 -0.031768337 0.48200002 16774655
0.016965374 -0.031834245 0.48300001 15855090
-0.0017248283 -0.030276729 0.48300001 16776191
-0.00094411115 -0.030602619 0.48200002 16643583
0.01693025 -0.030991191 0.48200002 16315387
-0.0017248283 -0.02949797 0.48300001 16776447
-0.00094411115 -0.029436899 0.48200002 16711422
-0.0017248283 -0.028719213 0.48300001 16776447
-0.00094411115 -0.028659754 0.48200002 16711422
0.017707396 -0.028659754 0.48200002 16050421
-0.0017248283 -0.027551075 0.48300001 16776191
-0.00094411115 -0.027494036 0.48200002 16711422
0.018484542 -0.027105462 0.48200002 9205900
-0.0017248283 -0.026382936 0.48300001 16776191
-0.00094411115 -0.026328314 0.48200002 16711423
-0.0017248283 -0.025604179 0.48300001 16051452
-0.00094411115 -0.025551168 0.48200002 16711423
-0.0017248283 -0.024436042 0.48300001 15853303
-0.00094411115 -0.024774022 0.48200002 16711423
0.019261688 -0.024774022 0.48200002 6640738
-0.0017248283 -0.023267902 0.48300001 15590133
0.019261688 -0.023996877 0.48200002 8154747
0.020080408 -0.023267902 0.48300001 6443361
-0.0017212572 -0.022442585 0.48200002 14339301
0.020038836 -0.022442585 0.48200002 6048090
-0.0017212572 -0.021665439 0.48200002 13351892
0.020038836 -0.021665439 0.48200002 5982297
-0.0025035867 -0.020152871 0.48300001 4931152
-0.0017212572 -0.020499721 0.48200002 11181243
0.020859167 -0.020542249 0.48300001 6442848
-0.0025035867 -0.019374112 0.48300001 5062224
-0.0017212572 -0.019334 0.48200002 9470880
0.02081598 -0.019334 0.48200002 5719125
-0.0025035867 -0.018595353 0.48300001 4996431
0.02081598 -0.018556854 0.48200002 5784918
-0.0024984032 -0.017391134 0.48200002 5062479
0.02081598 -0.017391134 0.48200002 5850711
-0.0032823451 -0.016259076 0.48300001 6246750
-0.0024984032 -0.016225414 0.48200002 5851992
0.021637924 -0.016259076 0.48300001 6771811
-0.0032823451 -0.015480319 0.48300001 5983578
0.021637924 -0.015480319 0.48300001 6771811
-0.0032755495 -0.014671124 0.48200002 6970473
0.021593126 -0.014671124 0.48200002 7100006
-0.0032755495 -0.013505405 0.48200002 6312542
0.021593126 -0.013893978 0.48200002 7099493
0.022416683 -0.013144044 0.48300001 6967909
0.022416683 -0.012365285 0.48300001 6902629
0.022370271 -0.011562538 0.48200002 7100008
0.0068698437 -0.055425558 0.48500001 16580606
0.0076518268 -0.055425558 0.48500001 16580606
0.0029599282 -0.054643579 0.48500001 16711422
0.0037341963 -0.054530911 0.48400003 16711422
0.0099771619 -0.054530911 0.48400003 16580606
0.01077976 -0.054643579 0.48500001 16580606
0.0013959621 -0.053861592 0.48500001 16711422
0.00256364 -0.053750537 0.48400003 16711422
0.011561742 -0.053861592 0.48500001 16580606
0.012343726 -0.053079609 0.48500001 16580606
0.00061397895 -0.052297626 0.48500001 16711422
0.0013930838 -0.052579984 0.48400003 16711422
0.00256364 -0.052970167 0.48400003 16711422
0.011537904 -0.052579984 0.48400003 16580606
0.012343726 -0.052297626 0.48500001 16580606
0.00061397895 -0.051515643 0.48500001 16711422
0.0013930838 -0.051409427 0.48400003 16711422
0.0021734545 -0.051409427 0.48400003 16711422
0.012318275 -0.051409427 0.48400003 16580606
-0.00016800419 -0.050733659 0.48500001 16776959
0.00061397895 -0.050733659 0.48500001 16711422
0.0013930838 -0.050629057 0.48400003 16711422
0.012318275 -0.050629057 0.48400003 16580606
-0.00016800419 -0.049560685 0.48500001 16776959
0.00061271305 -0.0494585 0.48400003 16711422
0.012318275 -0.049848687 0.48400003 16580606
0.013125708 -0.049169693 0.48500001 16580606
-0.00016800419 -0.04838771 0.48500001 16776959
0.00061271305 -0.048287943 0.48400003 16711422
0.013098646 -0.048287943 0.48400003 16580606
-0.00016765778 -0.047507573 0.48400003 16776703
0.013098646 -0.047507573 0.48400003 16711422
-0.00055882253 -0.046384484 0.48450002 16710655
0.013907692 -0.046823747 0.48500001 16711422
-0.00016765778 -0.045166459 0.48400003 16776191
0.013879017 -0.045556642 0.48400003 16711422
-0.00055882253 -0.04443194 0.48450002 16578557
-0.00094998733 -0.043695811 0.48500001 16775423
0.014689675 -0.043695811 0.48500001 16776959
-0.00094900792 -0.042479403 0.48450002 16644095
0.014674531 -0.042479403 0.48450002 16711167
-0.00094802858 -0.041264609 0.48400003 15853303
0.014659387 -0.041264609 0.48400003 16711422
-0.00094802858 -0.040484238 0.48400003 15261166
-0.0017319703 -0.039394908 0.48500001 15326452
-0.00094802858 -0.039703868 0.48400003 16774399
0.015471658 -0.039394908 0.48500001 16711422
-0.0017319703 -0.038221929 0.48500001 14931438
0.015439758 -0.038143121 0.48400003 16711422
-0.0017283993 -0.037362751 0.48400003 15063537
-0.0017283993 -0.036582381 0.48400003 14997229
-0.0017283993 -0.035411827 0.48400003 14076639
0.016236885 -0.035448812 0.48450002 16645629
-0.0017283993 -0.03424127 0.48400003 14405607
-0.0017283993 -0.0334609 0.48400003 14011619
0.0170005 -0.0334609 0.48400003 16249335
-0.0017283993 -0.03268053 0.48400003 14405607
0.0170005 -0.03268053 0.48400003 15920883
-0.0017283993 -0.031509969 0.48400003 14865898
0.01779924 -0.031542923 0.48450002 15061734
-0.0025139535 -0.030402098 0.48500001 10720170
0.01778087 -0.030339414 0.48400003 15983346
-0.0025139535 -0.029620117 0.48500001 10128547
-0.0025139535 -0.028447142 0.48500001 8877454
-0.0025139535 -0.027274167 0.48500001 7167350
0.01856124 -0.027998304 0.48400003 7034731
0.019381573 -0.027274167 0.48500001 5784664
-0.0025139535 -0.026492182 0.48500001 6772592
0.019341612 -0.02643756 0.48400003 5982043
-0.00250877 -0.02565719 0.48400003 5851492
0.019341612 -0.02565719 0.48400003 6245215
-0.00250877 -0.024486635 0.48400003 4996696
0.020121984 -0.02409645 0.48400003 6640227
-0.00250877 -0.023316078 0.48400003 4470353
0.02094554 -0.02336425 0.48500001 6706531
-0.00250877 -0.022535708 0.48400003 4536142
0.020902354 -0.022535708 0.48400003 6706018
-0.0032959366 -0.021409294 0.48500001 6313058
-0.00250877 -0.021755336 0.48400003 4733775
0.020902354 -0.021755336 0.48400003 6903397
0.021727523 -0.021018302 0.48500001 6903910
-0.0032959366 -0.020236319 0.48500001 6378850
-0.00250877 -0.020974966 0.48400003 4931152
0.021727523 -0.020236319 0.48500001 6706531
-0.0032959366 -0.019454336 0.48500001 6246750
0.021682724 -0.019414224 0.48400003 6509152
-0.003289141 -0.018633854 0.48400003 6246748
0.021682724 -0.018633854 0.48400003 6640738
-0.003289141 -0.017463297 0.48400003 6246748
0.021682724 -0.017463297 0.48400003 7034983
0.022509506 -0.016326403 0.48500001 6771811
0.022463094 -0.013951628 0.48400003 7099493
0.0053168181 -0.055539843 0.48600003 16711422
0.0061004129 -0.055539843 0.48600003 16711422
0.0084512001 -0.055539843 0.48600003 16580606
0.0092347953 -0.055539843 0.48600003 16580606
0.0021824357 -0.054756247 0.48600003 16711422
0.00061524491 -0.05358085 0.48600003 16711422
-0.00016835058 -0.052405458 0.48600003 16776959
-0.00016835058 -0.051621862 0.48600003 16776959
-0.00095194607 -0.050446469 0.48600003 16776959
0.013152773 -0.050446469 0.48600003 16580606
-0.00095194607 -0.049271077 0.48600003 16645374
-0.00095194607 -0.048487481 0.48600003 16776959
0.013936368 -0.048487481 0.48600003 16580606
-0.00095194607 -0.047703888 0.48600003 16776703
0.013936368 -0.047703888 0.48600003 16711422
-0.00095194607 -0.046920292 0.48600003 16776703
-0.00095194607 -0.0453531 0.48600003 16775935
0.014719963 -0.0453531 0.48600003 16776959
0.014719963 -0.044569504 0.48600003 16776959
-0.0017355415 -0.041435122 0.48600003 14734574
0.015503558 -0.041435122 0.48600003 16711422
-0.0017355415 -0.040651526 0.48600003 14866158
0.015503558 -0.040651526 0.48600003 16711422
-0.002519137 -0.038300738 0.48600003 14207715
-0.002519137 -0.037517145 0.48600003 14142435
0.016287154 -0.037517145 0.48600003 16644604
-0.002519137 -0.036733549 0.48600003 14208230
0.016287154 -0.036733549 0.48600003 16645372
-0.002519137 -0.035558157 0.48600003 14339816
0.01707075 -0.035166357 0.48600003 16775167
-0.002519137 -0.034382764 0.48600003 13880033
0.01707075 -0.034382764 0.48600003 16774399
-0.002519137 -0.033599168 0.48600003 13747679
-0.002519137 -0.032423772 0.48600003 13286872
0.017854346 -0.032815572 0.48600003 13417165
-0.002519137 -0.031248379 0.48600003 12496585
0.01863794 -0.031248379 0.48600003 8745862
0.01863794 -0.030464783 0.48600003 10325148
0.019421536 -0.028505797 0.48600003 5653078
-0.0033027325 -0.027330404 0.48600003 5654613
-0.0033027325 -0.026546806 0.48600003 4931406
0.020205133 -0.026546806 0.48600003 5850457
-0.0033027325 -0.025763212 0.48600003 5391957
0.020205133 -0.025763212 0.48600003 7100524
-0.0033027325 -0.024587819 0.48600003 5720921
0.020988727 -0.024196021 0.48600003 6903912
-0.0033027325 -0.023412425 0.48600003 5654875
-0.0033027325 -0.022628831 0.48600003 5523543
0.021772323 -0.022628831 0.48600003 6771811
0.021772323 -0.021845235 0.48600003 6771811
0.022555918 -0.019494448 0.48600003 6969703
0.022555918 -0.018710854 0.48600003 6903910
0.003757342 -0.05565412 0.48700002 16711422
0.0045425501 -0.05565412 0.48700002 16711422
0.010039004 -0.05565412 0.48700002 16580606
0.0014017186 -0.05486891 0.48700002 16711422
0.011609419 -0.05486891 0.48700002 16580606
0.012394628 -0.054083701 0.48700002 16580606
-0.00016869699 -0.053298492 0.48700002 16776447
-0.00095390482 -0.052513286 0.48700002 16776959
0.013179835 -0.052513286 0.48700002 16580606
-0.0017391125 -0.051728077 0.48700002 16775423
-0.00095390482 -0.051728077 0.48700002 16776959
0.013179835 -0.051728077 0.48700002 16580606
-0.0017391125 -0.050550267 0.48700002 16313596
-0.0017391125 -0.049372457 0.48700002 16708095
0.013965043 -0.049372457 0.48700002 16580606
-0.0017391125 -0.048587248 0.48700002 16116475
-0.0017391125 -0.047409438 0.48700002 15984121
0.014750251 -0.047016833 0.48700002 16776191
-0.0017391125 -0.046231624 0.48700002 15588852
0.014750251 -0.046231624 0.48700002 16776959
-0.0017391125 -0.045446415 0.48700002 16115450
-0.0017391125 -0.044661209 0.48700002 15721206
-0.0017391125 -0.043483399 0.48700002 15393013
0.015535458 -0.043483399 0.48700002 16711166
-0.0017391125 -0.042305585 0.48700002 15458295
0.015535458 -0.042305585 0.48700002 16776959
-0.0025243203 -0.04073517 0.48700002 14011621
-0.0025243203 -0.03955736 0.48700002 13879264
0.016320666 -0.03955736 0.48700002 15591916
0.016320666 -0.038379546 0.48700002 16249846
0.017891083 -0.033668302 0.48700002 12232378
0.01867629 -0.032097884 0.48700002 7824247
-0.0033095281 -0.031312674 0.48700002 4535880
-0.0033095281 -0.029742261 0.48700002 4865099
0.019461498 -0.029742261 0.48700002 6573410
-0.0033095281 -0.028957054 0.48700002 5128271
0.020246707 -0.027386639 0.48700002 5718871
-0.0040947357 -0.025031015 0.48700002 6313059
0.021031914 -0.025031015 0.48700002 6575717
-0.0040947357 -0.024245808 0.48700002 5852506
-0.0040947357 -0.023460599 0.48700002 6312805
0.021817122 -0.023460599 0.48700002 6838117
0.022602329 -0.021497581 0.48700002 7035496
0.0029782373 -0.0557684 0.48800004 16711422
0.010846439 -0.0557684 0.48800004 16580606
-0.00016904339 -0.054194756 0.48800004 16775935
0.00061777676 -0.054981582 0.48800004 16711422
-0.00095586356 -0.053407937 0.48800004 13815257
0.013206899 -0.053407937 0.48800004 16580606
0.01399372 -0.051047478 0.48800004 16711422
0.01399372 -0.050260659 0.48800004 16711422
0.014780539 -0.0479002 0.48800004 16446973
0.01556736 -0.044752918 0.48800004 16513788
-0.0025295038 -0.042392459 0.48800004 14406892
-0.0025295038 -0.041605636 0.48800004 14406379
0.016354179 -0.040818818 0.48800004 15394285
-0.003316324 -0.038458355 0.48800004 8088714
-0.003316324 -0.037671536 0.48800004 7562370
-0.003316324 -0.036491305 0.48800004 5523553
-0.003316324 -0.035311077 0.48800004 4470864
-0.003316324 -0.034524255 0.48800004 4470864
0.01792782 -0.034524255 0.48800004 9665170
-0.003316324 -0.033737436 0.48800004 4404558
-0.003316324 -0.032557204 0.48800004 4535371
0.019501461 -0.030590154 0.48800004 6244447
-0.0041031442 -0.029016515 0.48800004 5851994
0.020288281 -0.029016515 0.48800004 7034985
-0.0041031442 -0.028229695 0.48800004 5982808
0.020288281 -0.028229695 0.48800004 6574434
-0.0041031442 -0.027442874 0.48800004 6049371
-0.0041031442 -0.026656054 0.48800004 6115680
0.021075102 -0.026656054 0.48800004 6575717
-0.0041031442 -0.025869234 0.48800004 5984094
0.021468511 -0.025475822 0.48800004 6509924
0.02186192 -0.024295595 0.48800004 6640740
0.0045705326 -0.056787003 0.49000001 16711422
0.0053605777 -0.056787003 0.49000001 16580606
0.0065322858 -0.056671109 0.48900002 16580606
0.0077149346 -0.056671109 0.48900002 16580606
0.0085033681 -0.056671109 0.48900002 16580606
0.0093108015 -0.056787003 0.49000001 16580606
-0.00016973619 -0.055206914 0.49000001 16776447
0.0014103535 -0.055996958 0.49000001 16711422
0.0021959075 -0.055882677 0.48900002 16711422
0.011680936 -0.055996958 0.49000001 16580606
0.01244553 -0.055094246 0.48900002 16580606
-0.000959781 -0.054416865 0.49000001 12959181
0.013233962 -0.05430581 0.48900002 16580606
-0.0017498257 -0.05362682 0.49000001 16641535
0.01405107 -0.05362682 0.49000001 16776703
-0.0025398703 -0.052046731 0.49000001 16576255
-0.0017462547 -0.052728947 0.48900002 16775679
0.014022395 -0.052728947 0.48900002 16776959
-0.0025398703 -0.051256686 0.49000001 15720952
0.014022395 -0.051940516 0.48900002 16776959
-0.0025398703 -0.050466642 0.49000001 15852024
0.014841115 -0.050466642 0.49000001 15984628
-0.0025398703 -0.049676597 0.49000001 16115710
0.014810827 -0.049575217 0.48900002 16775167
-0.0025346871 -0.048786785 0.48900002 15195123
0.014810827 -0.048786785 0.48900002 16775935
0.01563116 -0.048096508 0.49000001 15525871
-0.0025346871 -0.047604136 0.48900002 15195123
0.01563116 -0.047306463 0.49000001 15789043
-0.0025398703 -0.046516418 0.49000001 15194612
0.015599259 -0.046421487 0.48900002 16447997
-0.0025346871 -0.045633055 0.48900002 14799852
0.015599259 -0.045633055 0.48900002 16579583
-0.0025346871 -0.04445041 0.48900002 14997743
0.016387692 -0.044056192 0.48900002 13614796
-0.0025346871 -0.043267757 0.48900002 13946341
0.016387692 -0.043267757 0.48900002 14735074
-0.0033299152 -0.042566195 0.49000001 13419484
0.016387692 -0.042479325 0.48900002 15064809
-0.0033299152 -0.04177615 0.49000001 12760784
0.016387692 -0.041690893 0.48900002 15459565
-0.0033231196 -0.040508248 0.48900002 11510460
0.017211249 -0.040196061 0.49000001 14799070
-0.0033231196 -0.039325595 0.48900002 9996711
-0.0041199601 -0.037430901 0.49000001 4273232
0.018001294 -0.037035879 0.49000001 6442848
-0.0041199601 -0.036245838 0.49000001 4405071
0.018001294 -0.036245838 0.49000001 6902629
-0.0041199601 -0.035455793 0.49000001 4470864
0.017964557 -0.035383433 0.48900002 8349310
-0.0041199601 -0.034665748 0.49000001 4865622
0.018791338 -0.034665748 0.49000001 5717590
-0.0041199601 -0.033480681 0.49000001 5522781
0.018752988 -0.033412352 0.48900002 6048093
0.019581383 -0.033085659 0.49000001 6640227
-0.0041199601 -0.032295611 0.49000001 5719132
0.019541422 -0.032229703 0.48900002 5915480
-0.0041115521 -0.031441271 0.48900002 5522775
0.019541422 -0.031441271 0.48900002 5652310
-0.0041115521 -0.030652838 0.48900002 5588822
0.02037143 -0.030715521 0.49000001 5785431
-0.0045107785 -0.02949992 0.48950002 5917272
0.020329855 -0.029864406 0.48900002 6245982
0.021161474 -0.029135434 0.49000001 6246752
0.021161474 -0.028345389 0.49000001 6444131
0.021118287 -0.02749911 0.48900002 6575717
0.021906719 -0.025922244 0.48900002 6707303
0.0022093793 -0.057018787 0.49200001 16711423
0.0085555352 -0.057812054 0.49200001 16580606
0.010935344 -0.057018787 0.49200001 16580606
0.00062157458 -0.056111239 0.49100003 16711423
0.002996546 -0.056902897 0.49100003 16711422
0.0037882032 -0.056902897 0.49100003 16711422
0.01012146 -0.056902897 0.49100003 16580606
0.012521883 -0.056225516 0.49200001 16580606
0.013288089 -0.055319581 0.49100003 16711422
-0.0017569679 -0.054638974 0.49200001 15259371
0.014108421 -0.054638974 0.49200001 16776447
0.014901691 -0.053052437 0.49200001 16250616
-0.0025450538 -0.052944608 0.49100003 16576255
0.014871404 -0.05215295 0.49100003 15918583
0.014871404 -0.051361293 0.49100003 15786737
0.015694959 -0.049879361 0.49200001 15524588
-0.0033435067 -0.048292823 0.49200001 14274021
0.015663059 -0.048986323 0.49100003 15525358
0.016488228 -0.048292823 0.49200001 7035764
-0.0033435067 -0.047499552 0.49200001 14471400
-0.0033435067 -0.046706282 0.49200001 14076129
0.016454717 -0.04661135 0.49100003 9076111
-0.0033367111 -0.045423865 0.49100003 14207971
0.016454717 -0.045819692 0.49100003 10128285
0.017281501 -0.045119744 0.49200001 6507106
-0.0033367111 -0.044236381 0.49100003 14142435
0.017281501 -0.044326473 0.49200001 6836069
-0.0033367111 -0.043444723 0.49100003 14010851
0.017246375 -0.043444723 0.49100003 7823477
-0.0041367766 -0.042739935 0.49200001 4206915
-0.0041325726 -0.041508209 0.49150002 4667982
0.017246375 -0.041861411 0.49100003 11706547
-0.0041283686 -0.040278096 0.49100003 4536146
0.01807477 -0.040360127 0.49200001 5850711
-0.0041283686 -0.039486434 0.49100003 4206927
0.01807477 -0.039566856 0.49200001 5719125
-0.0041283686 -0.03869478 0.49100003 4272720
0.018038033 -0.03869478 0.49100003 5456466
0.018453036 -0.037545085 0.49150002 5653587
-0.0049300459 -0.03639378 0.49200001 5457748
0.018868038 -0.03639378 0.49200001 5652562
-0.0049300459 -0.035600509 0.49200001 6838887
0.018829688 -0.035528153 0.49100003 5651797
-0.0049300459 -0.034807239 0.49200001 6773610
0.019661307 -0.034807239 0.49200001 6639205
-0.0049250359 -0.033582769 0.49150002 6181214
0.019621346 -0.033944838 0.49100003 6836582
0.020454578 -0.033220701 0.49200001 6706531
-0.0049200254 -0.032361522 0.49100003 5917783
0.020413004 -0.032361522 0.49100003 6180187
0.020413004 -0.031569865 0.49100003 5653843
0.021204662 -0.029986551 0.49100003 5325648
0.0014189883 -0.05713468 0.49300003 16711423
0.0045985156 -0.057929561 0.49300003 16711422
0.0053933975 -0.057929561 0.49300003 16711422
0.00658572 -0.057929561 0.49300003 16580606
0.0077780429 -0.057929561 0.49300003 16580606
0.0093678068 -0.057929561 0.49300003 16580606
0.011752452 -0.05713468 0.49300003 16580606
-0.0001707754 -0.056339797 0.49300003 16776191
-0.0025554209 -0.053955149 0.49300003 15785715
0.01493198 -0.053955149 0.49300003 16118262
0.015726861 -0.052365385 0.49300003 12826312
0.015726861 -0.051570505 0.49300003 14799842
0.015726861 -0.050775625 0.49300003 15129319
0.016521743 -0.049185861 0.49300003 12430272
0.017316625 -0.046006333 0.49300003 6113890
-0.0041451845 -0.044416569 0.49300003 5325648
-0.0041451845 -0.043621689 0.49300003 4470087
0.018111506 -0.042429365 0.49300003 5718871
-0.0049400665 -0.041237041 0.49300003 5259857
0.018111506 -0.041237041 0.49300003 5982810
-0.0049400665 -0.040442161 0.49300003 5325650
-0.0049400665 -0.039647277 0.49300003 5325910
-0.0049400665 -0.038454954 0.49300003 4865613
0.018906388 -0.038454954 0.49300003 6114395
0.01970127 -0.03567287 0.49300003 6441824
0.0034131019 -0.058047064 0.49400002 16711166
0.010183302 -0.058047064 0.49400002 16580606
0.013369278 -0.056454077 0.49400002 16776959
0.014165773 -0.05565758 0.49400002 16775679
0.01575876 -0.053268097 0.49400002 11839930
-0.0033570982 -0.052471604 0.49400002 14142433
0.016555253 -0.050082121 0.49400002 11311276
0.01735175 -0.047692642 0.49400002 5785949
-0.0041535925 -0.046099648 0.49400002 6443107
0.01735175 -0.046896145 0.49400002 5982304
-0.0041535925 -0.045303155 0.49400002 5523029
0.018148243 -0.044506662 0.49400002 6704483
0.018148243 -0.043710168 0.49400002 6112859
-0.0049500866 -0.042515427 0.49400002 5391444
0.018944737 -0.040524192 0.49400002 7166571
0.018944737 -0.039727695 0.49400002 6903399
0.0022228514 -0.05816457 0.49500003 15985911
0.00062663836 -0.057366464 0.49500003 15197676
-0.0025657876 -0.054972142 0.49500003 16772863
0.014992556 -0.054972142 0.49500003 15920883
0.016588768 -0.051779717 0.49500003 7823479
0.016588768 -0.050981611 0.49500003 8547970
-0.004162001 -0.049385399 0.49500003 10654629
-0.004162001 -0.048587292 0.49500003 8943243
0.017386876 -0.048587292 0.49500003 6114144
-0.004162001 -0.047789186 0.49500003 8351104
-0.004162001 -0.046991076 0.49500003 7035244
0.018184982 -0.046592023 0.49500003 6706027
0.018184982 -0.045394864 0.49500003 5914969
-0.0049601072 -0.044596758 0.49500003 5983578
-0.0049601072 -0.043798652 0.49500003 5785947
0.018983088 -0.043399598 0.49500003 7099496
-0.0057582138 -0.042202439 0.49500003 5588818
0.018983088 -0.042202439 0.49500003 7231594
-0.0057582138 -0.041404333 0.49500003 5588818
0.018983088 -0.041404333 0.49500003 6508387
0.0142518 -0.056796912 0.49700001 16775423
0.015453796 -0.055594914 0.49700001 12563394
0.015822561 -0.054283477 0.49600002 10128801
0.016655792 -0.053591587 0.49700001 6640488
-0.0041788169 -0.052790254 0.49700001 14141660
0.016622281 -0.052684039 0.49600002 7166319
0.017457124 -0.051187593 0.49700001 6969192
-0.0041704089 -0.050284885 0.49600002 10983596
0.017422 -0.050284885 0.49600002 6245469
0.017422 -0.049485166 0.49600002 6706533
-0.0049801478 -0.0487836 0.49700001 6443109
0.018258456 -0.0487836 0.49700001 6969453
-0.0049801478 -0.047581606 0.49700001 6508900
0.018221719 -0.047885727 0.49600002 6509672
0.019059787 -0.047180936 0.49700001 6837865
-0.0049701277 -0.046286289 0.49600002 6640486
0.019059787 -0.046379607 0.49700001 6706279
-0.0049701277 -0.045486569 0.49600002 5983580
0.019021437 -0.045486569 0.49600002 6770789
0.019021437 -0.04468685 0.49600002 6770789
0.015918262 -0.056220919 0.49900001 7035246
0.016722817 -0.055416357 0.49900001 6048351
0.016689306 -0.054502361 0.49800003 6114144
0.017527375 -0.053807247 0.49900001 7034985
0.01749225 -0.052495003 0.49800003 7166571
0.01833193 -0.05139358 0.49900001 7100778
0.018295193 -0.050487645 0.49800003 7166571
0.018295193 -0.049684703 0.49800003 7298670
0.019136485 -0.04978447 0.49900001 6707303
0.019098137 -0.048480287 0.49800003 6575462
0.0046638087 -0.060364421 0.5 6509670
0.0054699769 -0.060364421 0.5 6575979
0.0062761446 -0.060364421 0.5 6577008
0.0074853972 -0.060364421 0.5 6905975
0.0014391361 -0.059558254 0.5 6377314
0.011919321 -0.059558254 0.5 7628415
0.013531658 -0.058752086 0.5 11510454
0.014337827 -0.057945918 0.5 10457252
0.017562499 -0.054721244 0.5 6903910
0.018368667 -0.053108908 0.5 7034985
0.018368667 -0.052302741 0.5 7034985
0.019174835 -0.050690405 0.5 6443359
0.0034614657 -0.060485154 0.50100005 6246241
0.0087120393 -0.060485154 0.50100005 6642803
0.0095198201 -0.060485154 0.50100005 6576758
0.00063423399 -0.059677377 0.50100005 6377314
-0.00098132715 -0.058869597 0.50100005 6574945
0.015982063 -0.057254035 0.50100005 10127004
0.016789844 -0.056446254 0.50100005 5719384
0.017597625 -0.05563847 0.50100005 7035246
0.018405406 -0.054022912 0.50100005 7034985
0.0014448927 -0.060605884 0.50200003 6904678
0.0022542856 -0.060605884 0.50200003 6444131
0.010348214 -0.060605884 0.50200003 6510195
-0.000173893 -0.05979649 0.50200003 6904162
0.012776393 -0.05979649 0.50200003 7429752
-0.0026020715 -0.058177706 0.50200003 6707303
0.014395179 -0.0589871 0.50200003 8615562
0.015204571 -0.058177706 0.50200003 7167602
-0.0034114644 -0.057368312 0.50200003 5916763
0.0038885018 -0.061659954 0.50400001 6904932
0.0047011194 -0.061659954 0.50400001 6839139
