# .PCD v0.7 - Point Cloud Data file format
VERSION 0.7
FIELDS x y z rgba
SIZE 4 4 4 4
TYPE F F F U
COUNT 1 1 1 1
WIDTH 1096
HEIGHT 1
VIEWPOINT 0 0 0 1 0 0 0
POINTS 1096
DATA ascii
0.11905841 0.010028299 0.47400004 11709629
-0.0009245238 0.010747008 0.47200003 6444127
-0.00016280818 0.010701469 0.47000003 5852508
0.00059245806 0.010655931 0.46800002 4470866
0.0013441532 0.010633161 0.46700001 13747677
0.002088133 0.010587624 0.46500003 14076642
0.0028256637 0.010542085 0.46300003 14668777
0.0035567449 0.010496547 0.46100003 16379901
0.0042907041 0.010473778 0.46000001 16776190
0.0050104992 0.010428241 0.45800003 16711422
0.0057363966 0.010405471 0.45700002 16711422
0.0064590699 0.010382703 0.45600003 16711422
0.0071942951 0.010382703 0.45600003 16711422
0.007912131 0.010359933 0.45500001 16711422
0.0086457441 0.010359933 0.45500001 16711422
0.0093587432 0.010337164 0.45400003 16711422
0.010090744 0.010337164 0.45400003 16711422
0.010822744 0.010337164 0.45400003 16580606
0.011529294 0.010314395 0.45300001 16580606
0.012259683 0.010314395 0.45300001 16580606
0.013018747 0.010337164 0.45400003 16580606
0.013750748 0.010337164 0.45400003 16580606
0.014482748 0.010337164 0.45400003 16580606
0.015214749 0.010337164 0.45400003 16580606
0.01594675 0.010337164 0.45400003 16580606
0.016715487 0.010359933 0.45500001 16580606
0.0174491 0.010359933 0.45500001 16580606
0.018222675 0.010382703 0.45600003 16580606
0.018999476 0.010405471 0.45700002 16580606
0.019822687 0.010451009 0.45900002 16514813
0.020652346 0.010496547 0.46100003 16580606
0.022282992 0.010564854 0.46400002 11312041
0.023130389 0.010610393 0.46600002 5785429
0.023984235 0.010655931 0.46800002 7100006
0.024844529 0.010701469 0.47000003 6969188
0.025656799 0.010724238 0.47100002 7034981
0.026472297 0.010747008 0.47200003 6969701
0.027291017 0.010769776 0.47300002 7167850
0.096536592 0.010838083 0.47600001 5459812
0.096895225 0.010792546 0.47400004 13684460
0.097247407 0.010747008 0.47200003 14144241
0.097593151 0.010701469 0.47000003 15064568
0.097932428 0.010655931 0.46800002 15788534
0.09826526 0.010610393 0.46600002 16711423
0.098804131 0.010587624 0.46500003 16711423
0.099339768 0.010564854 0.46400002 16711422
0.1000879 0.010564854 0.46400002 16711422
0.10061871 0.010542085 0.46300003 16711422
0.10136522 0.010542085 0.46300003 16711422
0.10189117 0.010519316 0.46200001 16711422
0.10263608 0.010519316 0.46200001 16711422
0.10338098 0.010519316 0.46200001 16711422
0.1039005 0.010496547 0.46100003 16711422
0.10464378 0.010496547 0.46100003 16711422
0.10538707 0.010496547 0.46100003 16711422
0.10613035 0.010496547 0.46100003 16711422
0.10687365 0.010496547 0.46100003 16711422
0.10761693 0.010496547 0.46100003 16580606
0.10836022 0.010496547 0.46100003 16580606
0.10910351 0.010496547 0.46100003 16580606
0.10984679 0.010496547 0.46100003 16580606
0.11082997 0.010519316 0.46200001 16580606
0.11157487 0.010519316 0.46200001 16580606
0.11256289 0.010542085 0.46300003 16580606
0.11355413 0.010564854 0.46400002 16514813
0.11479493 0.010610393 0.46600002 16580606
0.11604219 0.010655931 0.46800002 16579327
0.11754546 0.010724238 0.47100002 14671336
0.11905841 0.010792546 0.47400004 10262183
0.12032823 0.010838083 0.47600001 5983326
-0.0016855465 0.011508031 0.47200003 6444127
-0.000922565 0.011483649 0.47100002 6904678
-0.00016315457 0.011483649 0.47100002 6116193
0.00059372396 0.011434886 0.46900001 4405073
0.0013441532 0.011386123 0.46700001 13155540
0.002088133 0.011337361 0.46500003 14142435
0.0028256637 0.011288598 0.46300003 14998514
0.0035567449 0.011239835 0.46100003 16049917
0.0042907041 0.011215453 0.46000001 16577276
0.0050104992 0.011166691 0.45800003 16711422
0.0057363966 0.011142309 0.45700002 16711422
0.0064590699 0.011117928 0.45600003 16711422
0.007178518 0.011093547 0.45500001 16711422
0.007912131 0.011093547 0.45500001 16711422
0.0086267423 0.011069166 0.45400003 16711422
0.0093587432 0.011069166 0.45400003 16711422
0.010090744 0.011069166 0.45400003 16711422
0.010798905 0.011044784 0.45300001 16711422
0.011529294 0.011044784 0.45300001 16580606
0.012259683 0.011044784 0.45300001 16580606
0.012990071 0.011044784 0.45300001 16580606
0.013750748 0.011069166 0.45400003 16580606
0.014482748 0.011069166 0.45400003 16580606
0.015214749 0.011069166 0.45400003 16580606
0.01594675 0.011069166 0.45400003 16580606
0.016715487 0.011093547 0.45500001 16580606
0.0174491 0.011093547 0.45500001 16580606
0.018222675 0.011117928 0.45600003 16580606
0.018999476 0.011142309 0.45700002 16580606
0.019779501 0.011166691 0.45800003 16580606
0.020607548 0.011215453 0.46000001 16580606
0.022282992 0.011312979 0.46400002 13220556
0.023080753 0.011337361 0.46500003 5983326
0.023932984 0.011386123 0.46700001 6838117
0.024791667 0.011434886 0.46900001 6706529
0.025656799 0.011483649 0.47100002 6903908
0.026472297 0.011508031 0.47200003 7036264
0.027233319 0.011508031 0.47200003 6904678
0.028053651 0.011532412 0.47300002 6838885
0.096333787 0.011581175 0.47500002 6710136
0.096690804 0.011532412 0.47300002 13553126
0.097041376 0.011483649 0.47100002 14802425
0.097385503 0.011434886 0.46900001 15196408
0.097723171 0.011386123 0.46700001 16513535
0.098054394 0.011337361 0.46500003 16711422
0.098804131 0.011337361 0.46500003 16711422
0.099339768 0.011312979 0.46400002 16711422
0.099872194 0.011288598 0.46300003 16711422
0.10040138 0.011264216 0.46200001 16711422
0.10114628 0.011264216 0.46200001 16711422
0.10189117 0.011264216 0.46200001 16711422
0.10241392 0.011239835 0.46100003 16711422
0.10315721 0.011239835 0.46100003 16711422
0.1039005 0.011239835 0.46100003 16711422
0.10464378 0.011239835 0.46100003 16711422
0.10538707 0.011239835 0.46100003 16711422
0.10613035 0.011239835 0.46100003 16711422
0.10687365 0.011239835 0.46100003 16711422
0.10761693 0.011239835 0.46100003 16580606
0.10836022 0.011239835 0.46100003 16580606
0.10910351 0.011239835 0.46100003 16580606
0.10984679 0.011239835 0.46100003 16580606
0.11082997 0.011264216 0.46200001 16580606
0.11157487 0.011264216 0.46200001 16580606
0.11256289 0.011288598 0.46300003 16580606
0.11355413 0.011312979 0.46400002 16580606
0.11479493 0.011361742 0.46600002 15921910
0.11629014 0.011434886 0.46900001 14276326
0.11754546 0.011483649 0.47100002 14671084
0.11905841 0.011556794 0.47400004 8024969
-0.0016855465 0.012269054 0.47200003 6509920
-0.000922565 0.012243059 0.47100002 6707299
-0.00016280818 0.012217065 0.47000003 6181986
0.00059372396 0.012191071 0.46900001 4339280
0.0013441532 0.012139084 0.46700001 12760784
0.002088133 0.012087097 0.46500003 14076644
0.0028256637 0.012035109 0.46300003 14932721
0.0035567449 0.011983122 0.46100003 15655672
0.0042813765 0.011931134 0.45900002 16643069
0.0050104992 0.011905141 0.45800003 16711422
0.0057238443 0.011853153 0.45600003 16711422
0.006444905 0.011827159 0.45500001 16711422
0.007178518 0.011827159 0.45500001 16711422
0.0078947423 0.011801166 0.45400003 16711422
0.0086267423 0.011801166 0.45400003 16711422
0.0093587432 0.011801166 0.45400003 16711422
0.010068517 0.011775171 0.45300001 16711422
0.010798905 0.011775171 0.45300001 16711422
0.011529294 0.011775171 0.45300001 16580606
0.012259683 0.011775171 0.45300001 16580606
0.012990071 0.011775171 0.45300001 16580606
0.013720459 0.011775171 0.45300001 16580606
0.014482748 0.011801166 0.45400003 16580606
0.015214749 0.011801166 0.45400003 16580606
0.01594675 0.011801166 0.45400003 16580606
0.016678751 0.011801166 0.45400003 16580606
0.0174491 0.011827159 0.45500001 16580606
0.018182714 0.011827159 0.45500001 16580606
0.018957902 0.011853153 0.45600003 16580606
0.019779501 0.011905141 0.45800003 16580606
0.020562749 0.011931134 0.45900002 16580606
0.021395633 0.011983122 0.46100003 15657711
0.022234969 0.012035109 0.46300003 14010072
0.023080753 0.012087097 0.46500003 6772842
0.023932984 0.012139084 0.46700001 6838119
0.024791667 0.012191071 0.46900001 6838115
0.025602326 0.012217065 0.47000003 6970471
0.02641621 0.012243059 0.47100002 7036264
0.027233319 0.012269054 0.47200003 6838885
0.028053651 0.012295047 0.47300002 6773092
0.028816285 0.012295047 0.47300002 6904678
0.096130982 0.012321041 0.47400004 13420770
0.09648639 0.012269054 0.47200003 13683942
0.096835345 0.012217065 0.47000003 15065338
0.097177856 0.012165078 0.46800002 15327992
0.097513914 0.012113091 0.46600002 16513535
0.098054394 0.012087097 0.46500003 16711422
0.098591648 0.012061103 0.46400002 16711422
0.099125676 0.012035109 0.46300003 16711422
0.099656478 0.012009115 0.46200001 16711422
0.10040138 0.012009115 0.46200001 16711422
0.10092735 0.011983122 0.46100003 16711422
0.10167064 0.011983122 0.46100003 16711422
0.10241392 0.011983122 0.46100003 16711422
0.10315721 0.011983122 0.46100003 16711422
0.10367511 0.011957128 0.46000001 16711422
0.10441679 0.011957128 0.46000001 16711422
0.10515846 0.011957128 0.46000001 16711422
0.10590013 0.011957128 0.46000001 16711422
0.10664181 0.011957128 0.46000001 16711422
0.10738348 0.011957128 0.46000001 16711422
0.10836022 0.011983122 0.46100003 16580606
0.10910351 0.011983122 0.46100003 16580606
0.10984679 0.011983122 0.46100003 16580606
0.11082997 0.012009115 0.46200001 16580606
0.11157487 0.012009115 0.46200001 16580606
0.11256289 0.012035109 0.46300003 16580606
0.11355413 0.012061103 0.46400002 16580606
0.11479493 0.012113091 0.46600002 16119032
0.11629014 0.012191071 0.46900001 14406888
0.11779503 0.012269054 0.47200003 14867439
0.11905841 0.012321041 0.47400004 7300735
-0.000922565 0.01300247 0.47100002 6378334
-0.00016280818 0.012974864 0.47000003 6116193
0.00059245806 0.012919652 0.46800002 4602452
0.0013412749 0.01286444 0.46600002 12629968
0.0020836424 0.012809227 0.46400002 13682656
0.0035567449 0.012726409 0.46100003 16116223
0.0042813765 0.012671197 0.45900002 16577279
0.0049995589 0.012615984 0.45700002 16711422
0.0057238443 0.012588379 0.45600003 16711422
0.006444905 0.012560773 0.45500001 16711422
0.007178518 0.012560773 0.45500001 16711422
0.0078947423 0.012533166 0.45400003 16711422
0.0086267423 0.012533166 0.45400003 16711422
0.0093587432 0.012533166 0.45400003 16711422
0.010068517 0.01250556 0.45300001 16711422
0.010798905 0.01250556 0.45300001 16711422
0.011529294 0.01250556 0.45300001 16711422
0.012259683 0.01250556 0.45300001 16711422
0.012990071 0.01250556 0.45300001 16580606
0.013720459 0.01250556 0.45300001 16580606
0.014450847 0.01250556 0.45300001 16580606
0.015214749 0.012533166 0.45400003 16580606
0.01594675 0.012533166 0.45400003 16580606
0.016678751 0.012533166 0.45400003 16580606
0.017410751 0.012533166 0.45400003 16580606
0.018182714 0.012560773 0.45500001 16580606
0.018957902 0.012588379 0.45600003 16580606
0.019736314 0.012615984 0.45700002 16580606
0.020562749 0.012671197 0.45900002 16580606
0.021395633 0.012726409 0.46100003 15920629
0.022234969 0.012781622 0.46300003 15325164
0.023031116 0.012809227 0.46400002 8877450
0.023881737 0.01286444 0.46600002 6640486
0.024738807 0.012919652 0.46800002 6903908
0.025602326 0.012974864 0.47000003 6970471
0.02641621 0.01300247 0.47100002 7036264
0.02717562 0.01300247 0.47100002 6970471
0.027994342 0.013030076 0.47200003 6970471
0.095567927 0.013112894 0.47500002 4736346
0.096629307 0.012947258 0.46900001 15262717
0.096970208 0.012892045 0.46700001 16249087
0.097304657 0.012836833 0.46500003 16579327
0.09784352 0.012809227 0.46400002 16711422
0.098379165 0.012781622 0.46300003 16711422
0.098911583 0.012754015 0.46200001 16711422
0.099656478 0.012754015 0.46200001 16711422
0.10018406 0.012726409 0.46100003 16711422
0.10092735 0.012726409 0.46100003 16711422
0.10145009 0.012698803 0.46000001 16711422
0.10219176 0.012698803 0.46000001 16711422
0.10293344 0.012698803 0.46000001 16711422
0.10367511 0.012698803 0.46000001 16711422
0.10441679 0.012698803 0.46000001 16711422
0.10515846 0.012698803 0.46000001 16711422
0.10590013 0.012698803 0.46000001 16711422
0.10664181 0.012698803 0.46000001 16711422
0.10738348 0.012698803 0.46000001 16711422
0.10812516 0.012698803 0.46000001 16711422
0.10910351 0.012726409 0.46100003 16580606
0.10984679 0.012726409 0.46100003 16580606
0.11059009 0.012726409 0.46100003 16580606
0.11157487 0.012754015 0.46200001 16580606
0.11256289 0.012781622 0.46300003 16580606
0.11355413 0.012809227 0.46400002 16580606
0.11504127 0.012892045 0.46700001 15329264
0.11629014 0.012947258 0.46900001 15788543
0.11779503 0.013030076 0.47200003 14538476
-0.000922565 0.01376188 0.47100002 6444127
-0.00016280818 0.013732661 0.47000003 6050400
0.00059245806 0.013674225 0.46800002 4535892
0.0013412749 0.013615788 0.46600002 11511487
0.0020836424 0.013557351 0.46400002 13682656
0.0035567449 0.013469696 0.46100003 15260403
0.0042813765 0.013411259 0.45900002 16379901
0.0049995589 0.013352822 0.45700002 16776959
0.0057238443 0.013323604 0.45600003 16776959
0.006444905 0.013294385 0.45500001 16711422
0.0071627414 0.013265167 0.45400003 16711422
0.0078947423 0.013265167 0.45400003 16711422
0.0086267423 0.013265167 0.45400003 16711422
0.0093381284 0.013235948 0.45300001 16711422
0.010068517 0.013235948 0.45300001 16711422
0.010798905 0.013235948 0.45300001 16711422
0.011529294 0.013235948 0.45300001 16711422
0.012259683 0.013235948 0.45300001 16711422
0.012990071 0.013235948 0.45300001 16711422
0.013720459 0.013235948 0.45300001 16580606
0.014450847 0.013235948 0.45300001 16580606
0.015181235 0.013235948 0.45300001 16580606
0.015911624 0.013235948 0.45300001 16580606
0.016678751 0.013265167 0.45400003 16580606
0.017410751 0.013265167 0.45400003 16580606
0.018182714 0.013294385 0.45500001 16580606
0.018957902 0.013323604 0.45600003 16580606
0.019736314 0.013352822 0.45700002 16580606
0.020562749 0.013411259 0.45900002 16580606
0.021395633 0.013469696 0.46100003 16183542
0.022186944 0.013498914 0.46200001 15719922
0.023031116 0.013557351 0.46400002 9732759
0.023881737 0.013615788 0.46600002 6442848
0.024738807 0.013674225 0.46800002 7034983
0.025547853 0.013703443 0.46900001 6838885
0.026360126 0.013732661 0.47000003 6904678
0.02717562 0.01376188 0.47100002 6970471
0.027994342 0.013791099 0.47200003 7036264
0.095366731 0.013849536 0.47400004 5394276
0.095725365 0.013791099 0.47200003 14210286
0.096077546 0.013732661 0.47000003 13683942
0.096762568 0.013615788 0.46600002 16314879
0.097304657 0.01358657 0.46500003 16514047
0.097632654 0.013528133 0.46300003 16711422
0.098379165 0.013528133 0.46300003 16711422
0.098911583 0.013498914 0.46200001 16711422
0.099440776 0.013469696 0.46100003 16711422
0.10018406 0.013469696 0.46100003 16711422
0.10070842 0.013440477 0.46000001 16711422
0.10145009 0.013440477 0.46000001 16711422
0.10219176 0.013440477 0.46000001 16711422
0.10293344 0.013440477 0.46000001 16711422
0.10344973 0.013411259 0.45900002 16711422
0.1041898 0.013411259 0.45900002 16711422
0.10492986 0.013411259 0.45900002 16711422
0.10566992 0.013411259 0.45900002 16711422
0.10664181 0.013440477 0.46000001 16711422
0.10738348 0.013440477 0.46000001 16711422
0.10812516 0.013440477 0.46000001 16711422
0.10886684 0.013440477 0.46000001 16580606
0.10984679 0.013469696 0.46100003 16580606
0.11059009 0.013469696 0.46100003 16580606
0.11157487 0.013498914 0.46200001 16580606
0.11256289 0.013528133 0.46300003 16580606
0.11355413 0.013557351 0.46400002 16580606
0.11504127 0.013645006 0.46700001 15066092
0.11629014 0.013703443 0.46900001 15985919
0.11930958 0.013878754 0.47500002 5655138
-0.0016819753 0.014521291 0.47100002 6444127
-0.00092060631 0.01449046 0.47000003 6970471
-0.00016246177 0.01445963 0.46900001 5392216
0.00059245806 0.014428799 0.46800002 4470866
0.0013412749 0.014367137 0.46600002 9010583
0.0020836424 0.014305475 0.46400002 14208230
0.0035490294 0.014182152 0.46000001 15984124
0.0042720493 0.014120491 0.45800003 16643071
0.0049995589 0.01408966 0.45700002 16711167
0.0057238443 0.01405883 0.45600003 16776959
0.006444905 0.014027999 0.45500001 16711422
0.0071627414 0.013997168 0.45400003 16711422
0.0078947423 0.013997168 0.45400003 16711422
0.0086077405 0.013966337 0.45300001 16711422
0.0093381284 0.013966337 0.45300001 16711422
0.010068517 0.013966337 0.45300001 16711422
0.010798905 0.013966337 0.45300001 16711422
0.011529294 0.013966337 0.45300001 16711422
0.012259683 0.013966337 0.45300001 16711422
0.012990071 0.013966337 0.45300001 16711422
0.013720459 0.013966337 0.45300001 16711422
0.014450847 0.013966337 0.45300001 16580606
0.015181235 0.013966337 0.45300001 16580606
0.015911624 0.013966337 0.45300001 16580606
0.016642012 0.013966337 0.45300001 16580606
0.017410751 0.013997168 0.45400003 16580606
0.01814275 0.013997168 0.45400003 16580606
0.018957902 0.01405883 0.45600003 16580606
0.019736314 0.01408966 0.45700002 16580606
0.020562749 0.014151322 0.45900002 16580606
0.021349221 0.014182152 0.46000001 16381434
0.022186944 0.014243814 0.46200001 15391979
0.023031116 0.014305475 0.46400002 11510192
0.023881737 0.014367137 0.46600002 6179676
0.024738807 0.014428799 0.46800002 6903397
0.025547853 0.01445963 0.46900001 6773094
0.026360126 0.01449046 0.47000003 6773094
0.02717562 0.014521291 0.47100002 6838887
0.027994342 0.014552122 0.47200003 6773092
0.028755363 0.014552122 0.47200003 6773092
0.095522553 0.014521291 0.47100002 13224415
0.095873125 0.01445963 0.46900001 13619173
0.096217245 0.014397968 0.46700001 14868213
0.096554928 0.014336307 0.46500003 16775679
0.0970954 0.014305475 0.46400002 16711423
0.097632654 0.014274646 0.46300003 16711422
0.098166682 0.014243814 0.46200001 16711422
0.098697491 0.014212984 0.46100003 16711422
0.099440776 0.014212984 0.46100003 16711422
0.099966742 0.014182152 0.46000001 16711422
0.10070842 0.014182152 0.46000001 16711422
0.10145009 0.014182152 0.46000001 16711422
0.10196961 0.014151322 0.45900002 16711422
0.10270967 0.014151322 0.45900002 16711422
0.10344973 0.014151322 0.45900002 16711422
0.1041898 0.014151322 0.45900002 16711422
0.10492986 0.014151322 0.45900002 16711422
0.10566992 0.014151322 0.45900002 16711422
0.10640998 0.014151322 0.45900002 16711422
0.10715004 0.014151322 0.45900002 16711422
0.10812516 0.014182152 0.46000001 16711422
0.10886684 0.014182152 0.46000001 16711422
0.10960852 0.014182152 0.46000001 16711422
0.11059009 0.014212984 0.46100003 16711422
0.11157487 0.014243814 0.46200001 16580606
0.11231977 0.014243814 0.46200001 16580606
0.11355413 0.014305475 0.46400002 16383227
0.11504127 0.014397968 0.46700001 14210785
0.11629014 0.01445963 0.46900001 13946591
0.11779503 0.014552122 0.47200003 13880798
0.11930958 0.014644614 0.47500002 5786976
-0.00092060631 0.01524826 0.47000003 7036264
-0.00016246177 0.015215815 0.46900001 5458009
0.00059245806 0.015183372 0.46800002 4602452
0.0013412749 0.015118486 0.46600002 8024458
0.0020836424 0.0150536 0.46400002 13880035
0.0028195605 0.014988714 0.46200001 14340582
0.0035490294 0.014923828 0.46000001 16050431
0.0042720493 0.014858942 0.45800003 16775679
0.0049886191 0.014794055 0.45600003 16711167
0.0057112919 0.014761612 0.45500001 16776959
0.0064307405 0.014729169 0.45400003 16711422
0.0071627414 0.014729169 0.45400003 16711422
0.0078773526 0.014696726 0.45300001 16711422
0.0086077405 0.014696726 0.45300001 16711422
0.0093381284 0.014696726 0.45300001 16711422
0.010046291 0.014664283 0.45200002 16711422
0.010775067 0.014664283 0.45200002 16711422
0.011503844 0.014664283 0.45200002 16711422
0.012232619 0.014664283 0.45200002 16711422
0.012961396 0.014664283 0.45200002 16711422
0.013690172 0.014664283 0.45200002 16711422
0.014418948 0.014664283 0.45200002 16580606
0.015181235 0.014696726 0.45300001 16580606
0.015911624 0.014696726 0.45300001 16580606
0.016642012 0.014696726 0.45300001 16580606
0.017372401 0.014696726 0.45300001 16580606
0.01814275 0.014729169 0.45400003 16580606
0.018916328 0.014761612 0.45500001 16580606
0.019693127 0.014794055 0.45600003 16580606
0.020517951 0.014858942 0.45800003 16580606
0.021349221 0.014923828 0.46000001 16053239
0.022186944 0.014988714 0.46200001 15326700
0.023031116 0.0150536 0.46400002 12431808
0.023881737 0.015118486 0.46600002 6245728
0.024685945 0.015150929 0.46700001 6969192
0.025547853 0.015215815 0.46900001 6838887
0.026360126 0.01524826 0.47000003 6773094
0.02717562 0.015280702 0.47100002 6773094
0.094602488 0.015378032 0.47400004 4604501
0.095319748 0.01524826 0.47000003 14342126
0.095668703 0.015183372 0.46800002 14144747
0.096011214 0.015118486 0.46600002 15328764
0.096347272 0.0150536 0.46400002 16052735
0.096886143 0.015021157 0.46300003 16645631
0.09742178 0.014988714 0.46200001 16711422
0.097954206 0.014956271 0.46100003 16711422
0.098697491 0.014956271 0.46100003 16711422
0.099225067 0.014923828 0.46000001 16711422
0.099966742 0.014923828 0.46000001 16711422
0.10048949 0.014891385 0.45900002 16711422
0.10122955 0.014891385 0.45900002 16711422
0.10196961 0.014891385 0.45900002 16711422
0.10270967 0.014891385 0.45900002 16711422
0.10344973 0.014891385 0.45900002 16711422
0.1041898 0.014891385 0.45900002 16711422
0.10492986 0.014891385 0.45900002 16711422
0.10566992 0.014891385 0.45900002 16711422
0.10640998 0.014891385 0.45900002 16711422
0.10715004 0.014891385 0.45900002 16711422
0.10812516 0.014923828 0.46000001 16711422
0.10886684 0.014923828 0.46000001 16711422
0.10960852 0.014923828 0.46000001 16711422
0.11059009 0.014956271 0.46100003 16711422
0.11157487 0.014988714 0.46200001 16580606
0.11231977 0.014988714 0.46200001 16514813
0.11355413 0.0150536 0.46400002 16251641
0.11504127 0.015150929 0.46700001 14868715
0.11629014 0.015215815 0.46900001 14736107
0.11779503 0.015313146 0.47200003 13288661
0.11930958 0.015410475 0.47500002 5721183
-0.00092060631 0.016006056 0.47000003 6115162
-0.00016246177 0.015972001 0.46900001 5457496
0.0005911921 0.01590389 0.46700001 5260380
0.0013383967 0.015835781 0.46500003 6840697
0.0020791518 0.015767669 0.46300003 12696274
0.0028134577 0.015699558 0.46100003 13880546
0.0035490294 0.015665501 0.46000001 15590651
0.0042720493 0.015597392 0.45800003 15392754
0.0049886191 0.015529281 0.45600003 16316411
0.0057112919 0.015495225 0.45500001 16711167
0.0064307405 0.01546117 0.45400003 16711422
0.0071469638 0.015427114 0.45300001 16711422
0.0078773526 0.015427114 0.45300001 16711422
0.0086077405 0.015427114 0.45300001 16711422
0.0093175154 0.015393059 0.45200002 16711422
0.010046291 0.015393059 0.45200002 16711422
0.010775067 0.015393059 0.45200002 16711422
0.011503844 0.015393059 0.45200002 16711422
0.012232619 0.015393059 0.45200002 16711422
0.012961396 0.015393059 0.45200002 16711422
0.013690172 0.015393059 0.45200002 16711422
0.014418948 0.015393059 0.45200002 16711422
0.015147722 0.015393059 0.45200002 16711422
0.0158765 0.015393059 0.45200002 16580606
0.016642012 0.015427114 0.45300001 16580606
0.017372401 0.015427114 0.45300001 16580606
0.01814275 0.01546117 0.45400003 16580606
0.018916328 0.015495225 0.45500001 16580606
0.019693127 0.015529281 0.45600003 16580606
0.020517951 0.015597392 0.45800003 16580606
0.021349221 0.015665501 0.46000001 16250616
0.02213892 0.015699558 0.46100003 15261420
0.022981482 0.015767669 0.46300003 14406111
0.02383049 0.015835781 0.46500003 5917535
0.024685945 0.01590389 0.46700001 6969705
0.025547853 0.015972001 0.46900001 6838117
0.026360126 0.016006056 0.47000003 6838117
0.02717562 0.016040111 0.47100002 6773094
0.094402902 0.016108222 0.47300002 5854570
0.09525986 0.015869835 0.46600002 14407408
0.095805183 0.015835781 0.46500003 15394303
0.096139632 0.015767669 0.46300003 16513279
0.096676886 0.015733613 0.46200001 16711423
0.097210914 0.015699558 0.46100003 16711422
0.097954206 0.015699558 0.46100003 16711422
0.098483391 0.015665501 0.46000001 16711422
0.099225067 0.015665501 0.46000001 16711422
0.099749424 0.015631447 0.45900002 16711422
0.10048949 0.015631447 0.45900002 16711422
0.10122955 0.015631447 0.45900002 16711422
0.10196961 0.015631447 0.45900002 16711422
0.10270967 0.015631447 0.45900002 16711422
0.10322436 0.015597392 0.45800003 16711422
0.10396281 0.015597392 0.45800003 16711422
0.10492986 0.015631447 0.45900002 16711422
0.10566992 0.015631447 0.45900002 16711422
0.10640998 0.015631447 0.45900002 16711422
0.10715004 0.015631447 0.45900002 16711422
0.10789011 0.015631447 0.45900002 16711422
0.10886684 0.015665501 0.46000001 16711422
0.10960852 0.015665501 0.46000001 16711422
0.11059009 0.015699558 0.46100003 16711422
0.11133337 0.015699558 0.46100003 16711422
0.11231977 0.015733613 0.46200001 16776959
0.11355413 0.015801724 0.46400002 16513788
0.11504127 0.01590389 0.46700001 14801385
0.11629014 0.015972001 0.46900001 14668266
-0.0016784043 0.016763855 0.47000003 7364459
-0.00091864751 0.016728187 0.46900001 6115162
-0.00016246177 0.016728187 0.46900001 6115426
0.0005911921 0.01665685 0.46700001 4931415
0.0013383967 0.016585516 0.46500003 6182767
0.0020791518 0.01651418 0.46300003 12498895
0.0028134577 0.016442845 0.46100003 13486560
0.0035413143 0.016371509 0.45900002 15722237
0.0042720493 0.016335841 0.45800003 15919098
0.0049886191 0.016264506 0.45600003 16447995
0.0057112919 0.016228838 0.45500001 16776959
0.0064307405 0.01619317 0.45400003 16711422
0.0071469638 0.016157502 0.45300001 16711422
0.0078773526 0.016157502 0.45300001 16711422
0.0085887397 0.016121835 0.45200002 16711422
0.0093175154 0.016121835 0.45200002 16711422
0.010046291 0.016121835 0.45200002 16711422
0.010775067 0.016121835 0.45200002 16711422
0.011503844 0.016121835 0.45200002 16711422
0.012232619 0.016121835 0.45200002 16711422
0.012961396 0.016121835 0.45200002 16711422
0.013690172 0.016121835 0.45200002 16711422
0.014418948 0.016121835 0.45200002 16711422
0.015147722 0.016121835 0.45200002 16711422
0.0158765 0.016121835 0.45200002 16711422
0.016605277 0.016121835 0.45200002 16580606
0.017372401 0.016157502 0.45300001 16580606
0.018102789 0.016157502 0.45300001 16580606
0.018916328 0.016228838 0.45500001 16580606
0.019693127 0.016264506 0.45600003 16580606
0.020473151 0.016300173 0.45700002 16580606
0.02130281 0.016371509 0.45900002 16579581
0.02213892 0.016442845 0.46100003 15591155
0.022981482 0.01651418 0.46300003 14604260
0.02383049 0.016585516 0.46500003 5785949
0.024685945 0.01665685 0.46700001 6903912
0.025547853 0.016728187 0.46900001 6574945
0.026360126 0.016763855 0.47000003 6838117
0.02717562 0.016799523 0.47100002 6969703
0.094203323 0.01683519 0.47200003 7103867
0.09525986 0.016621184 0.46600002 15065592
0.095599145 0.016549848 0.46400002 15657727
0.095931984 0.016478512 0.46200001 16775935
0.096676886 0.016478512 0.46200001 16711423
0.097210914 0.016442845 0.46100003 16711422
0.097741716 0.016407177 0.46000001 16711422
0.098483391 0.016407177 0.46000001 16711422
0.099009365 0.016371509 0.45900002 16711422
0.099749424 0.016371509 0.45900002 16711422
0.10048949 0.016371509 0.45900002 16711422
0.101009 0.016335841 0.45800003 16711422
0.10174746 0.016335841 0.45800003 16711422
0.10248591 0.016335841 0.45800003 16711422
0.10322436 0.016335841 0.45800003 16711422
0.10396281 0.016335841 0.45800003 16711422
0.10470126 0.016335841 0.45800003 16711422
0.10566992 0.016371509 0.45900002 16711422
0.10640998 0.016371509 0.45900002 16711422
0.10715004 0.016371509 0.45900002 16711422
0.10789011 0.016371509 0.45900002 16711422
0.10863017 0.016371509 0.45900002 16711422
0.10960852 0.016407177 0.46000001 16711422
0.11059009 0.016442845 0.46100003 16711422
0.11133337 0.016442845 0.46100003 16711422
0.11231977 0.016478512 0.46200001 16776959
0.11355413 0.016549848 0.46400002 16711167
0.11504127 0.01665685 0.46700001 15260655
0.11629014 0.016728187 0.46900001 14470373
-0.00091864751 0.017484371 0.46900001 5851992
-0.00016211538 0.017447092 0.46800002 5786201
0.0005911921 0.017409811 0.46700001 5523291
0.0013383967 0.017335251 0.46500003 5129566
0.0020791518 0.017260691 0.46300003 11379901
0.0035413143 0.017111572 0.45900002 14406892
0.0042627212 0.01703701 0.45700002 16050431
0.0049886191 0.016999731 0.45600003 16577279
0.0056987396 0.016925171 0.45400003 16645374
0.0064307405 0.016925171 0.45400003 16776959
0.0071469638 0.01688789 0.45300001 16711422
0.0078773526 0.01688789 0.45300001 16711422
0.0085887397 0.016850609 0.45200002 16711422
0.0093175154 0.016850609 0.45200002 16711422
0.010046291 0.016850609 0.45200002 16711422
0.010775067 0.016850609 0.45200002 16711422
0.011503844 0.016850609 0.45200002 16711422
0.012232619 0.016850609 0.45200002 16711422
0.012961396 0.016850609 0.45200002 16711422
0.013690172 0.016850609 0.45200002 16711422
0.014418948 0.016850609 0.45200002 16711422
0.015147722 0.016850609 0.45200002 16711422
0.0158765 0.016850609 0.45200002 16711422
0.016605277 0.016850609 0.45200002 16711422
0.017334051 0.016850609 0.45200002 16580606
0.018102789 0.01688789 0.45300001 16580606
0.018874753 0.016925171 0.45400003 16580606
0.019693127 0.016999731 0.45600003 16580606
0.020473151 0.01703701 0.45700002 16580606
0.02130281 0.017111572 0.45900002 16579838
0.022090895 0.01714885 0.46000001 15855610
0.022981482 0.017260691 0.46300003 15066094
0.02383049 0.017335251 0.46500003 5785695
0.024685945 0.017409811 0.46700001 6640486
0.025547853 0.017484371 0.46900001 7496047
0.026360126 0.017521651 0.47000003 7101289
0.094003737 0.017558932 0.47100002 9867173
0.094360754 0.017484371 0.46900001 13684196
0.095055446 0.017335251 0.46500003 15197176
0.095393114 0.017260691 0.46300003 16118271
0.095931984 0.01722341 0.46200001 16250366
0.096467629 0.017186131 0.46100003 16776703
0.097210914 0.017186131 0.46100003 16775675
0.097741716 0.01714885 0.46000001 16775932
0.098269299 0.017111572 0.45900002 16776702
0.099009365 0.017111572 0.45900002 16711422
0.099532105 0.017074291 0.45800003 16711422
0.10027055 0.017074291 0.45800003 16711422
0.101009 0.017074291 0.45800003 16711422
0.10174746 0.017074291 0.45800003 16711422
0.10248591 0.017074291 0.45800003 16711422
0.10322436 0.017074291 0.45800003 16711422
0.10396281 0.017074291 0.45800003 16711422
0.10470126 0.017074291 0.45800003 16711422
0.10543971 0.017074291 0.45800003 16711422
0.10640998 0.017111572 0.45900002 16711422
0.10715004 0.017111572 0.45900002 16711422
0.10789011 0.017111572 0.45900002 16711422
0.10863017 0.017111572 0.45900002 16711422
0.10960852 0.01714885 0.46000001 16711422
0.11035018 0.01714885 0.46000001 16711422
0.11133337 0.017186131 0.46100003 16711422
0.11231977 0.01722341 0.46200001 16512253
0.11355413 0.017297972 0.46400002 15854323
0.11504127 0.017409811 0.46700001 15063274
0.11629014 0.017484371 0.46900001 14469855
0.11905841 0.017670773 0.47400004 6443107
-0.00091864751 0.018240556 0.46900001 6707299
-0.00016211538 0.018201664 0.46800002 6707301
0.0005899262 0.01812388 0.46600002 5325912
0.0013383967 0.018084988 0.46500003 4800601
0.0020791518 0.018007202 0.46300003 10656178
0.0035413143 0.017851632 0.45900002 14932723
0.0042627212 0.017773848 0.45700002 15392500
0.0049886191 0.017734956 0.45600003 15786997
0.0056987396 0.01765717 0.45400003 15657711
0.0064165755 0.017618278 0.45300001 16776447
0.0071469638 0.017618278 0.45300001 16711422
0.0078599639 0.017579386 0.45200002 16711422
0.0085887397 0.017579386 0.45200002 16711422
0.0093175154 0.017579386 0.45200002 16711422
0.010046291 0.017579386 0.45200002 16711422
0.010775067 0.017579386 0.45200002 16711422
0.011503844 0.017579386 0.45200002 16711422
0.012232619 0.017579386 0.45200002 16711422
0.012961396 0.017579386 0.45200002 16711422
0.013690172 0.017579386 0.45200002 16711422
0.014387047 0.017540494 0.45100003 16711422
0.015147722 0.017579386 0.45200002 16711422
0.0158765 0.017579386 0.45200002 16711422
0.016605277 0.017579386 0.45200002 16711422
0.017334051 0.017579386 0.45200002 16580606
0.018102789 0.017618278 0.45300001 16580606
0.018874753 0.01765717 0.45400003 16580606
0.01964994 0.017696062 0.45500001 16580606
0.020473151 0.017773848 0.45700002 16580606
0.0212564 0.01781274 0.45800003 16645631
0.022090895 0.017890524 0.46000001 15592438
0.022931844 0.01796831 0.46200001 11444661
0.02377924 0.018046094 0.46400002 5720670
0.024685945 0.018162772 0.46700001 6442594
0.02549338 0.018201664 0.46800002 6969190
0.026360126 0.01827945 0.47000003 6903397
0.093804151 0.01827945 0.47000003 10854068
0.094159558 0.018201664 0.46800002 13421024
0.094508514 0.01812388 0.46600002 14078700
0.094851024 0.018046094 0.46400002 15723519
0.095187083 0.01796831 0.46200001 16118271
0.095724344 0.017929418 0.46100003 16578559
0.096467629 0.017929418 0.46100003 16775935
0.09700004 0.017890524 0.46000001 14009293
0.097741716 0.017890524 0.46000001 14206672
0.098269299 0.017851632 0.45900002 16774907
0.099009365 0.017851632 0.45900002 16711422
0.099532105 0.01781274 0.45800003 16711422
0.10027055 0.01781274 0.45800003 16711422
0.101009 0.01781274 0.45800003 16711422
0.10174746 0.01781274 0.45800003 16711422
0.10248591 0.01781274 0.45800003 16711422
0.10322436 0.01781274 0.45800003 16711422
0.10396281 0.01781274 0.45800003 16711422
0.10470126 0.01781274 0.45800003 16711422
0.10543971 0.01781274 0.45800003 16711422
0.10617816 0.01781274 0.45800003 16711422
0.10691661 0.01781274 0.45800003 16711422
0.10789011 0.017851632 0.45900002 16711422
0.10863017 0.017851632 0.45900002 16711422
0.10960852 0.017890524 0.46000001 16711422
0.11035018 0.017890524 0.46000001 16711422
0.11133337 0.017929418 0.46100003 16711422
0.11231977 0.01796831 0.46200001 16578559
0.11355413 0.018046094 0.46400002 15262701
0.11479493 0.01812388 0.46600002 14734824
0.11629014 0.018240556 0.46900001 13548751
0.11754546 0.018318342 0.47100002 7298416
-0.00091864751 0.018996743 0.46900001 6574943
-0.00016211538 0.01895624 0.46800002 6378336
0.0005899262 0.01887523 0.46600002 5260119
0.0013355183 0.01879422 0.46400002 4142417
0.0020746612 0.01871321 0.46200001 9405857
0.0028134577 0.018672707 0.46100003 13617376
0.0035413143 0.018591696 0.45900002 14472170
0.0042627212 0.018510686 0.45700002 16380159
0.0049776793 0.018429676 0.45500001 16776447
0.0056987396 0.018389173 0.45400003 16316409
0.0064165755 0.018348668 0.45300001 16250616
0.0071311872 0.018308163 0.45200002 16711422
0.0078599639 0.018308163 0.45200002 16711422
0.0085887397 0.018308163 0.45200002 16711422
0.0093175154 0.018308163 0.45200002 16711422
0.010024065 0.018267659 0.45100003 16711422
0.010751229 0.018267659 0.45100003 16711422
0.011478393 0.018267659 0.45100003 16711422
0.012205556 0.018267659 0.45100003 16711422
0.012932721 0.018267659 0.45100003 16711422
0.013659884 0.018267659 0.45100003 16711422
0.014387047 0.018267659 0.45100003 16711422
0.015114211 0.018267659 0.45100003 16711422
0.015841376 0.018267659 0.45100003 16711422
0.016605277 0.018308163 0.45200002 16711422
0.017334051 0.018308163 0.45200002 16711422
0.018062826 0.018308163 0.45200002 16711422
0.018833179 0.018348668 0.45300001 16580606
0.01964994 0.018429676 0.45500001 16580606
0.020428352 0.018470183 0.45600003 16580606
0.0212564 0.018551191 0.45800003 16711423
0.022090895 0.018632201 0.46000001 16710143
0.022931844 0.01871321 0.46200001 13811923
0.02377924 0.01879422 0.46400002 6574693
0.024633085 0.01887523 0.46600002 5981273
0.02549338 0.01895624 0.46800002 6969190
0.02630404 0.018996743 0.46900001 6969190
0.093442298 0.019118259 0.47200003 4998743
0.093604565 0.018996743 0.46900001 12368334
0.094305709 0.018834725 0.46500003 15065849
0.094851024 0.01879422 0.46400002 16117759
0.095187083 0.01871321 0.46200001 16578303
0.095724344 0.018672707 0.46100003 16776447
0.096258372 0.018632201 0.46000001 14864861
0.09700004 0.018632201 0.46000001 11046557
0.09752924 0.018591696 0.45900002 9667468
0.098269299 0.018591696 0.45900002 11312293
0.098793656 0.018551191 0.45800003 16776958
0.099532105 0.018551191 0.45800003 16711422
0.10027055 0.018551191 0.45800003 16711422
0.10078846 0.018510686 0.45700002 16711422
0.1015253 0.018510686 0.45700002 16711422
0.10226213 0.018510686 0.45700002 16711422
0.10299897 0.018510686 0.45700002 16711422
0.10373581 0.018510686 0.45700002 16711422
0.10470126 0.018551191 0.45800003 16711422
0.10543971 0.018551191 0.45800003 16711422
0.10617816 0.018551191 0.45800003 16711422
0.10691661 0.018551191 0.45800003 16711422
0.10789011 0.018591696 0.45900002 16711422
0.10863017 0.018591696 0.45900002 16711422
0.10937024 0.018591696 0.45900002 16711422
0.11035018 0.018632201 0.46000001 16711422
0.11133337 0.018672707 0.46100003 16711422
0.11231977 0.01871321 0.46200001 16513535
0.11355413 0.01879422 0.46400002 14605543
0.11479493 0.01887523 0.46600002 14801646
0.11629014 0.018996743 0.46900001 10193826
0.11754546 0.019077754 0.47100002 5785695
-0.00016211538 0.019710813 0.46800002 6509924
0.0005899262 0.019626578 0.46600002 5194072
0.0013355183 0.019542344 0.46400002 3813452
0.0020746612 0.01945811 0.46200001 8682134
0.0028073546 0.019373875 0.46000001 13419995
0.0035413143 0.019331759 0.45900002 14670062
0.0042627212 0.019247524 0.45700002 16446463
0.0049776793 0.01916329 0.45500001 16776959
0.0056987396 0.019121174 0.45400003 16776958
0.0064165755 0.019079056 0.45300001 16645372
0.0071311872 0.019036939 0.45200002 16711422
0.0078599639 0.019036939 0.45200002 16711422
0.0085697379 0.018994821 0.45100003 16711422
0.0092969015 0.018994821 0.45100003 16711422
0.010024065 0.018994821 0.45100003 16711422
0.010751229 0.018994821 0.45100003 16711422
0.011478393 0.018994821 0.45100003 16711422
0.012205556 0.018994821 0.45100003 16711422
0.012932721 0.018994821 0.45100003 16711422
0.013659884 0.018994821 0.45100003 16711422
0.014387047 0.018994821 0.45100003 16711422
0.015114211 0.018994821 0.45100003 16711422
0.015841376 0.018994821 0.45100003 16711422
0.01656854 0.018994821 0.45100003 16711422
0.017334051 0.019036939 0.45200002 16711422
0.018062826 0.019036939 0.45200002 16711422
0.018833179 0.019079056 0.45300001 16711422
0.019606754 0.019121174 0.45400003 16580606
0.020428352 0.019205408 0.45600003 16580606
0.021209989 0.019247524 0.45700002 16579838
0.022042872 0.019331759 0.45900002 16775935
0.022882208 0.019415993 0.46100003 14338267
0.023727993 0.019500228 0.46300003 7430002
0.024633085 0.019626578 0.46600002 5915221
0.02549338 0.019710813 0.46800002 6903397
0.02630404 0.019752929 0.46900001 7034983
0.093244322 0.019837163 0.47100002 4473169
0.093404986 0.019710813 0.46800002 13223643
0.093555972 0.019584462 0.46500003 13750505
0.094102897 0.019542344 0.46400002 15328510
0.094646603 0.019500228 0.46300003 16249343
0.095187083 0.01945811 0.46200001 16776191
0.095724344 0.019415993 0.46100003 16578559
0.096258372 0.019373875 0.46000001 14141138
0.096789174 0.019331759 0.45900002 9402763
0.09752924 0.019331759 0.45900002 10588316
0.098055206 0.019289643 0.45800003 12627899
0.098793656 0.019289643 0.45800003 16776958
0.099314786 0.019247524 0.45700002 16711422
0.10005162 0.019247524 0.45700002 16711422
0.10078846 0.019247524 0.45700002 16711422
0.1015253 0.019247524 0.45700002 16711422
0.10226213 0.019247524 0.45700002 16711422
0.10299897 0.019247524 0.45700002 16711422
0.10373581 0.019247524 0.45700002 16711422
0.10447264 0.019247524 0.45700002 16711422
0.10543971 0.019289643 0.45800003 16711422
0.10617816 0.019289643 0.45800003 16711422
0.10691661 0.019289643 0.45800003 16711422
0.10765506 0.019289643 0.45800003 16711422
0.10863017 0.019331759 0.45900002 16711422
0.10937024 0.019331759 0.45900002 16711422
0.11035018 0.019373875 0.46000001 16711422
0.11133337 0.019415993 0.46100003 16711422
0.11231977 0.01945811 0.46200001 16447487
0.11355413 0.019542344 0.46400002 14605289
0.11479493 0.019626578 0.46600002 14077923
0.11629014 0.019752929 0.46900001 8944527
0.11754546 0.019837163 0.47100002 5391705
0.11880723 0.019921398 0.47300002 6574693
-0.00016211538 0.020465385 0.46800002 6245982
0.0005899262 0.020377927 0.46600002 5851488
0.0013355183 0.020290468 0.46400002 4010831
0.0020746612 0.020203009 0.46200001 7037309
0.0028073546 0.020115549 0.46000001 13289436
0.0035413143 0.020071821 0.45900002 13749987
0.0042627212 0.019984361 0.45700002 14736623
0.0049776793 0.019896902 0.45500001 16710911
0.0056861872 0.019809444 0.45300001 15921906
0.0064165755 0.019809444 0.45300001 16382457
0.0071311872 0.019765714 0.45200002 16711422
0.0078425743 0.019721985 0.45100003 16711422
0.0085697379 0.019721985 0.45100003 16711422
0.0092969015 0.019721985 0.45100003 16711422
0.010024065 0.019721985 0.45100003 16711422
0.010751229 0.019721985 0.45100003 16711422
0.011478393 0.019721985 0.45100003 16711422
0.012178493 0.019678256 0.45000002 16711422
0.012904044 0.019678256 0.45000002 16711422
0.013629596 0.019678256 0.45000002 16711422
0.014355146 0.019678256 0.45000002 16711422
0.015080697 0.019678256 0.45000002 16711422
0.015841376 0.019721985 0.45100003 16711422
0.01656854 0.019721985 0.45100003 16711422
0.017295701 0.019721985 0.45100003 16711422
0.018062826 0.019765714 0.45200002 16711422
0.018791605 0.019765714 0.45200002 16711422
0.019606754 0.019853173 0.45400003 16711422
0.020383552 0.019896902 0.45500001 16711422
0.021209989 0.019984361 0.45700002 16645629
0.02199485 0.020028092 0.45800003 16775935
0.022882208 0.02015928 0.46100003 15128553
0.023727993 0.020246739 0.46300003 8878218
0.024580225 0.020334197 0.46500003 5849687
0.025438907 0.020421656 0.46700001 6969190
0.02630404 0.020509114 0.46900001 6969190
0.093046352 0.020552846 0.47000003 4999516
0.093404986 0.020465385 0.46800002 13684966
0.093555972 0.020334197 0.46500003 13750507
0.093900092 0.020246739 0.46300003 14604787
0.094442181 0.020203009 0.46200001 16183805
0.094981052 0.02015928 0.46100003 16775935
0.095516697 0.020115549 0.46000001 16776703
0.096258372 0.020115549 0.46000001 13420236
0.096789174 0.020071821 0.45900002 10984358
0.097316757 0.020028092 0.45800003 16250614
0.098055206 0.020028092 0.45800003 16776958
0.098577946 0.019984361 0.45700002 16711422
0.099314786 0.019984361 0.45700002 16711422
0.10005162 0.019984361 0.45700002 16711422
0.10078846 0.019984361 0.45700002 16711422
0.1015253 0.019984361 0.45700002 16711422
0.10226213 0.019984361 0.45700002 16711422
0.10299897 0.019984361 0.45700002 16711422
0.10373581 0.019984361 0.45700002 16711422
0.10447264 0.019984361 0.45700002 16711422
0.10543971 0.020028092 0.45800003 16711422
0.10617816 0.020028092 0.45800003 16711422
0.10691661 0.020028092 0.45800003 16711422
0.10765506 0.020028092 0.45800003 16711422
0.10863017 0.020071821 0.45900002 16711422
0.10937024 0.020071821 0.45900002 16711422
0.11035018 0.020115549 0.46000001 16711422
0.11133337 0.02015928 0.46100003 16645631
0.11231977 0.020203009 0.46200001 15986172
0.11355413 0.020290468 0.46400002 15459828
0.11504127 0.020421656 0.46700001 12893903
0.11629014 0.020509114 0.46900001 6509924
0.11754546 0.020596573 0.47100002 5523029
-0.00091668882 0.021219959 0.46800002 6377564
-0.00016211538 0.021219959 0.46800002 6245980
0.0005899262 0.021129275 0.46600002 6114914
0.0013383967 0.021083934 0.46500003 4273487
0.0020746612 0.020947907 0.46200001 6510449
0.0028073546 0.020857224 0.46000001 13618146
0.0035413143 0.020811882 0.45900002 14078952
0.0042627212 0.020721199 0.45700002 14144488
0.0049776793 0.020630514 0.45500001 16776703
0.0056987396 0.020585174 0.45400003 16250871
0.006402411 0.020494491 0.45200002 16579836
0.0071311872 0.020494491 0.45200002 16711422
0.0078425743 0.020449148 0.45100003 16711422
0.0085697379 0.020449148 0.45100003 16711422
0.0092762867 0.020403806 0.45000002 16711422
0.010001839 0.020403806 0.45000002 16711422
0.01072739 0.020403806 0.45000002 16711422
0.011452941 0.020403806 0.45000002 16711422
0.012178493 0.020403806 0.45000002 16711422
0.012904044 0.020403806 0.45000002 16711422
0.013629596 0.020403806 0.45000002 16711422
0.014355146 0.020403806 0.45000002 16711422
0.015080697 0.020403806 0.45000002 16711422
0.01580625 0.020403806 0.45000002 16711422
0.016531801 0.020403806 0.45000002 16711422
0.017295701 0.020449148 0.45100003 16711422
0.018022865 0.020449148 0.45100003 16711422
0.018791605 0.020494491 0.45200002 16711422
0.019563567 0.020539831 0.45300001 16711422
0.020383552 0.020630514 0.45500001 16711422
0.021163577 0.020675857 0.45600003 16711422
0.02199485 0.020766541 0.45800003 16776191
0.022832572 0.020857224 0.46000001 15391725
0.023676744 0.020947907 0.46200001 9601941
0.024527363 0.021038592 0.46400002 5718871
0.025384434 0.021129275 0.46600002 6903397
0.026247954 0.021219959 0.46800002 6771811
0.093046352 0.021310642 0.47000003 6183792
0.0932054 0.021174615 0.46700001 13948138
0.093555972 0.021083934 0.46500003 14540023
0.093900092 0.020993249 0.46300003 14867959
0.094442181 0.020947907 0.46200001 16513535
0.094981052 0.020902567 0.46100003 16710911
0.095516697 0.020857224 0.46000001 16776959
0.096049115 0.020811882 0.45900002 14671584
0.096578307 0.020766541 0.45800003 15394537
0.097316757 0.020766541 0.45800003 16711422
0.097841114 0.020721199 0.45700002 16711422
0.098577946 0.020721199 0.45700002 16711422
0.099314786 0.020721199 0.45700002 16711422
0.099832691 0.020675857 0.45600003 16711422
0.10056792 0.020675857 0.45600003 16711422
0.10130315 0.020675857 0.45600003 16711422
0.10203837 0.020675857 0.45600003 16711422
0.10277359 0.020675857 0.45600003 16711422
0.10373581 0.020721199 0.45700002 16711422
0.10447264 0.020721199 0.45700002 16711422
0.10520948 0.020721199 0.45700002 16711422
0.10617816 0.020766541 0.45800003 16711422
0.10691661 0.020766541 0.45800003 16711422
0.10765506 0.020766541 0.45800003 16711422
0.10863017 0.020811882 0.45900002 16711422
0.10937024 0.020811882 0.45900002 16711422
0.11035018 0.020857224 0.46000001 16711422
0.11133337 0.020902567 0.46100003 16514045
0.11231977 0.020947907 0.46200001 15788793
0.11379886 0.021083934 0.46500003 15459828
0.11504127 0.021174615 0.46700001 11775420
0.11629014 0.0212653 0.46900001 6048601
0.11754546 0.021355983 0.47100002 5522257
-0.00016176897 0.021927578 0.46700001 6574943
0.0005899262 0.021880625 0.46600002 6114144
0.0013355183 0.021786716 0.46400002 4930904
0.0020746612 0.021692809 0.46200001 5128283
0.0028073546 0.0215989 0.46000001 13353950
0.003533599 0.021504993 0.45800003 14406892
0.0042627212 0.021458037 0.45700002 14472172
0.0049776793 0.02136413 0.45500001 16248831
0.0056987396 0.021317177 0.45400003 16711167
0.006402411 0.021223268 0.45200002 16711167
0.0071311872 0.021223268 0.45200002 16711422
0.0078425743 0.021176314 0.45100003 16711422
0.0085507361 0.021129359 0.45000002 16711422
0.0092762867 0.021129359 0.45000002 16711422
0.010001839 0.021129359 0.45000002 16711422
0.01072739 0.021129359 0.45000002 16711422
0.011452941 0.021129359 0.45000002 16711422
0.012178493 0.021129359 0.45000002 16711422
0.012904044 0.021129359 0.45000002 16711422
0.013629596 0.021129359 0.45000002 16711422
0.014355146 0.021129359 0.45000002 16711422
0.015080697 0.021129359 0.45000002 16711422
0.01580625 0.021129359 0.45000002 16711422
0.016531801 0.021129359 0.45000002 16711422
0.017295701 0.021176314 0.45100003 16711422
0.018022865 0.021176314 0.45100003 16711422
0.018791605 0.021223268 0.45200002 16711422
0.019563567 0.021270221 0.45300001 16711422
0.020338753 0.021317177 0.45400003 16711422
0.021163577 0.021411084 0.45600003 16711422
0.021946825 0.021458037 0.45700002 16776191
0.022782937 0.021551946 0.45900002 15655926
0.023625495 0.021645855 0.46100003 10984623
0.024527363 0.021786716 0.46400002 5784666
0.025384434 0.021880625 0.46600002 6706018
0.026247954 0.021974534 0.46800002 6706018
0.0932054 0.021927578 0.46700001 13882091
0.093354777 0.021786716 0.46400002 14737400
0.09369728 0.021692809 0.46200001 14868211
0.094442181 0.021692809 0.46200001 16579327
0.094775014 0.0215989 0.46000001 16776703
0.095309049 0.021551946 0.45900002 16711422
0.095839858 0.021504993 0.45800003 16711422
0.096578307 0.021504993 0.45800003 16711422
0.097104274 0.021458037 0.45700002 16711422
0.097841114 0.021458037 0.45700002 16711422
0.098362245 0.021411084 0.45600003 16711422
0.099097468 0.021411084 0.45600003 16711422
0.099832691 0.021411084 0.45600003 16711422
0.10056792 0.021411084 0.45600003 16711422
0.10130315 0.021411084 0.45600003 16711422
0.10203837 0.021411084 0.45600003 16711422
0.10277359 0.021411084 0.45600003 16711422
0.10350882 0.021411084 0.45600003 16711422
0.10447264 0.021458037 0.45700002 16711422
0.10520948 0.021458037 0.45700002 16711422
0.10594632 0.021458037 0.45700002 16711422
0.10668316 0.021458037 0.45700002 16711422
0.10765506 0.021504993 0.45800003 16711422
0.10839351 0.021504993 0.45800003 16711422
