# .PCD v0.7 - Point Cloud Data file format
VERSION 0.7
FIELDS x y z rgba
SIZE 4 4 4 4
TYPE F F F U
COUNT 1 1 1 1
WIDTH 1077
HEIGHT 1
VIEWPOINT 0 0 0 1 0 0 0
POINTS 1077
DATA ascii
0.0166048 0.0039851763 0.42700002 15196404
0.017063778 0.0039851763 0.42700002 14275302
0.017522758 0.0039851763 0.42700002 15459576
0.017981736 0.0039851763 0.42700002 16380671
0.018440714 0.0039851763 0.42700002 16775423
0.018899692 0.0039851763 0.42700002 15919866
0.01935867 0.0039851763 0.42700002 14604006
0.019817648 0.0039851763 0.42700002 14998764
0.020276628 0.0039851763 0.42700002 14933486
0.020735607 0.0039851763 0.42700002 15262451
0.021194585 0.0039851763 0.42700002 15000306
0.021653563 0.0039851763 0.42700002 14737134
0.022164328 0.0039945096 0.42800003 14473962
0.022624381 0.0039945096 0.42800003 15000306
0.023084436 0.0039945096 0.42800003 15132662
0.023544488 0.0039945096 0.42800003 14540525
0.024004541 0.0039945096 0.42800003 14145767
0.024464594 0.0039945096 0.42800003 14014181
0.024982883 0.0040038424 0.42900002 13685216
0.02544401 0.0040038424 0.42900002 14014181
0.02590514 0.0040038424 0.42900002 13488859
0.026366267 0.0040038424 0.42900002 13291480
0.02688993 0.0040131751 0.43000001 13159894
0.027352132 0.0040131751 0.43000001 12699343
0.027814336 0.0040131751 0.43000001 12633546
0.028276538 0.0040131751 0.43000001 12567753
0.028805576 0.0040225084 0.43100002 12370374
0.029268855 0.0040225084 0.43100002 11909823
0.029732132 0.0040225084 0.43100002 11516352
0.030265471 0.0040318412 0.43200001 11384766
0.030800957 0.004041174 0.43300003 10203843
0.031338595 0.0040505072 0.43400002 10072257
0.031878382 0.00405984 0.43500003 10072257
0.032420315 0.0040691728 0.43600002 6726335
0.032964401 0.004078506 0.43700001 3963029
0.033587143 0.0040971716 0.43900001 1014691
0.034136608 0.0041065048 0.44000003 1672621
0.034766875 0.0041251709 0.44200003 296878
0.035321709 0.0041345037 0.44300002 954808
0.0077208495 0.0046210885 0.44400004 1021889
0.0081796367 0.0046106805 0.44300002 5679303
0.0091113765 0.0046002725 0.44200003 10864089
0.0094780335 0.004548233 0.43700001 11258847
0.010322134 0.004506602 0.43300003 12569561
0.011175023 0.004475378 0.43000001 12700374
0.011583101 0.0044545624 0.42800003 13292511
0.012043155 0.0044545624 0.42800003 13818085
0.012503208 0.0044545624 0.42800003 13752292
0.012963261 0.0044545624 0.42800003 13949158
0.013423313 0.0044545624 0.42800003 14278123
0.013883367 0.0044545624 0.42800003 13948388
0.014309907 0.0044441544 0.42700002 14211560
0.014768886 0.0044441544 0.42700002 14737134
0.015227865 0.0044441544 0.42700002 14737134
0.015686844 0.0044441544 0.42700002 14802927
0.016145822 0.0044441544 0.42700002 14868720
0.0166048 0.0044441544 0.42700002 15263221
0.017063778 0.0044441544 0.42700002 14144740
0.017522758 0.0044441544 0.42700002 16249343
0.017981736 0.0044441544 0.42700002 16775935
0.018440714 0.0044441544 0.42700002 15985661
0.018899692 0.0044441544 0.42700002 14998766
0.01935867 0.0044441544 0.42700002 14867693
0.019817648 0.0044441544 0.42700002 14801900
0.020276628 0.0044441544 0.42700002 14867693
0.020735607 0.0044441544 0.42700002 14933486
0.021194585 0.0044441544 0.42700002 14539498
0.021653563 0.0044441544 0.42700002 14342119
0.022112541 0.0044441544 0.42700002 14342376
0.022624381 0.0044545624 0.42800003 15658236
0.023084436 0.0044545624 0.42800003 15658236
0.023544488 0.0044545624 0.42800003 14539755
0.024004541 0.0044545624 0.42800003 13751007
0.024464594 0.0044545624 0.42800003 13685214
0.024982883 0.0044649704 0.42900002 13751007
0.02544401 0.0044649704 0.42900002 13619421
0.02590514 0.0044649704 0.42900002 13422296
0.026366267 0.0044649704 0.42900002 13159124
0.02688993 0.004475378 0.43000001 13159122
0.027352132 0.004475378 0.43000001 12961743
0.027814336 0.004475378 0.43000001 12632778
0.028276538 0.004475378 0.43000001 12632778
0.028805576 0.004485786 0.43100002 12041924
0.029268855 0.004485786 0.43100002 11712959
0.029801115 0.004496194 0.43200001 11122367
0.030265471 0.004496194 0.43200001 10793402
0.030800957 0.004506602 0.43300003 9219262
0.031338595 0.0045170095 0.43400002 9087676
0.031878382 0.0045274175 0.43500003 9087676
0.032420315 0.0045378255 0.43600002 4427180
0.032964401 0.004548233 0.43700001 3242906
0.033587143 0.004569049 0.43900001 1279657
0.034136608 0.004579457 0.44000003 1608622
0.035321709 0.0046106805 0.44300002 954293
0.007227283 0.0050868569 0.44300002 2003639
0.0081611732 0.0050753742 0.44200003 8437723
0.011123047 0.0049146158 0.42800003 13226464
0.011583101 0.0049146158 0.42800003 13358050
0.012043155 0.0049146158 0.42800003 13817831
0.012473994 0.004903133 0.42700002 13752038
0.012932972 0.004903133 0.42700002 13883111
0.01339195 0.004903133 0.42700002 14212076
0.013850929 0.004903133 0.42700002 14343146
0.014309907 0.004903133 0.42700002 14474732
0.014768886 0.004903133 0.42700002 14342374
0.015227865 0.004903133 0.42700002 14802925
0.015686844 0.004903133 0.42700002 14802925
0.016145822 0.004903133 0.42700002 14868718
0.0166048 0.004903133 0.42700002 14868463
0.017063778 0.004903133 0.42700002 14539498
0.017522758 0.004903133 0.42700002 16511999
0.017981736 0.004903133 0.42700002 16775167
0.018440714 0.004903133 0.42700002 14801900
0.018899692 0.004903133 0.42700002 15065072
0.01935867 0.004903133 0.42700002 15065072
0.019817648 0.004903133 0.42700002 14933486
0.020276628 0.004903133 0.42700002 14802670
0.020735607 0.004903133 0.42700002 14736877
0.021194585 0.004903133 0.42700002 14671084
0.021653563 0.004903133 0.42700002 14671084
0.022112541 0.004903133 0.42700002 15000306
0.022624381 0.0049146158 0.42800003 15329271
0.023084436 0.0049146158 0.42800003 14802670
0.023544488 0.0049146158 0.42800003 14407912
0.024004541 0.0049146158 0.42800003 14144995
0.024464594 0.0049146158 0.42800003 14013409
0.024982883 0.0049260985 0.42900002 13816284
0.02544401 0.0049260985 0.42900002 13618905
0.02590514 0.0049260985 0.42900002 13488087
0.026366267 0.0049260985 0.42900002 13224915
0.02688993 0.0049375808 0.43000001 13027536
0.027352132 0.0049375808 0.43000001 12632778
0.027814336 0.0049375808 0.43000001 12436169
0.028276538 0.0049375808 0.43000001 12436169
0.028805576 0.004949064 0.43100002 11976133
0.029268855 0.004949064 0.43100002 11449789
0.029732132 0.004949064 0.43100002 11057605
0.030265471 0.0049605467 0.43200001 10728640
0.030800957 0.0049720295 0.43300003 8957891
0.031338595 0.0049835122 0.43400002 7905203
0.031878382 0.004994995 0.43500003 7905203
0.032420315 0.0050064777 0.43600002 2456220
0.032964401 0.0050179604 0.43700001 2719392
0.033587143 0.0050409259 0.43900001 1082537
0.034136608 0.0050524087 0.44000003 1345709
0.035321709 0.0050868569 0.44300002 625841
0.0067358674 0.0055504763 0.44200003 888500
0.007210969 0.0055504763 0.44200003 4035763
0.010662994 0.0053746696 0.42800003 13030112
0.011123047 0.0053746696 0.42800003 13292257
0.011556037 0.0053621116 0.42700002 13358050
0.012015016 0.0053621116 0.42700002 13752038
0.012473994 0.0053621116 0.42700002 14146796
0.012932972 0.0053621116 0.42700002 14408685
0.01339195 0.0053621116 0.42700002 14408685
0.013850929 0.0053621116 0.42700002 14540525
0.014309907 0.0053621116 0.42700002 14737904
0.014768886 0.0053621116 0.42700002 14868718
0.015227865 0.0053621116 0.42700002 14737132
0.015686844 0.0053621116 0.42700002 15000304
0.016145822 0.0053621116 0.42700002 14868718
0.0166048 0.0053621116 0.42700002 14078945
0.017063778 0.0053621116 0.42700002 16447487
0.017522758 0.0053621116 0.42700002 16315903
0.017939625 0.0053495541 0.42600003 15329014
0.018397529 0.0053495541 0.42600003 14736877
0.01885543 0.0053495541 0.42600003 14868463
0.019313334 0.0053495541 0.42600003 14868209
0.019771239 0.0053495541 0.42600003 14868209
0.020276628 0.0053621116 0.42700002 15197174
0.020735607 0.0053621116 0.42700002 14605037
0.021194585 0.0053621116 0.42700002 14736880
0.021653563 0.0053621116 0.42700002 15131638
0.022112541 0.0053621116 0.42700002 15329019
0.022624381 0.0053746696 0.42800003 14736882
0.023084436 0.0053746696 0.42800003 14210790
0.023544488 0.0053746696 0.42800003 13881825
0.024004541 0.0053746696 0.42800003 13684444
0.024464594 0.0053746696 0.42800003 14276581
0.024924647 0.0053746696 0.42800003 14013663
0.02544401 0.0053872271 0.42900002 13618905
0.02590514 0.0053872271 0.42900002 13224915
0.026366267 0.0053872271 0.42900002 13224915
0.02688993 0.0053997845 0.43000001 13093329
0.027352132 0.0053997845 0.43000001 12632778
0.027814336 0.0053997845 0.43000001 12567755
0.028342299 0.005412342 0.43100002 12172997
0.028805576 0.005412342 0.43100002 11845063
0.029268855 0.005412342 0.43100002 11450305
0.029801115 0.0054248995 0.43200001 10335167
0.030265471 0.0054248995 0.43200001 10335167
0.030800957 0.0054374575 0.43300003 8236229
0.031338595 0.005450015 0.43400002 5867681
0.031878382 0.0054625729 0.43500003 5867681
0.032420315 0.0054751304 0.43600002 1668760
0.033039834 0.0055002458 0.43800002 2260897
0.033587143 0.0055128033 0.43900001 1017258
0.034214191 0.0055379183 0.44100001 1477809
0.035321709 0.0055630337 0.44300002 1283771
0.0062607653 0.0060255779 0.44200003 4498883
0.0067053884 0.005998313 0.44000003 4564676
0.0088846227 0.0058756201 0.43100002 12175577
0.0093045225 0.0058483551 0.42900002 12240596
0.0097428868 0.0058347224 0.42800003 12503768
0.010202941 0.0058347224 0.42800003 13161184
0.010662994 0.0058347224 0.42800003 13226977
0.011123047 0.0058347224 0.42800003 13358050
0.011556037 0.0058210897 0.42700002 13423843
0.012015016 0.0058210897 0.42700002 13817831
0.012473994 0.0058210897 0.42700002 14146796
0.012932972 0.0058210897 0.42700002 14408685
0.01339195 0.0058210897 0.42700002 14408685
0.013850929 0.0058210897 0.42700002 14605548
0.014309907 0.0058210897 0.42700002 14671341
0.014768886 0.0058210897 0.42700002 14736875
0.015227865 0.0058210897 0.42700002 14802668
0.015686844 0.0058210897 0.42700002 14868715
0.016145822 0.0058210897 0.42700002 14737129
0.016565913 0.0058074575 0.42600003 15658231
0.017023817 0.0058074575 0.42600003 16776703
0.01748172 0.0058074575 0.42600003 16579071
0.017939625 0.0058074575 0.42600003 15065840
0.018397529 0.0058074575 0.42600003 14934256
0.01885543 0.0058074575 0.42600003 14868463
0.019313334 0.0058074575 0.42600003 14868209
0.019771239 0.0058074575 0.42600003 14736623
0.020229142 0.0058074575 0.42600003 14736880
0.020735607 0.0058210897 0.42700002 14342122
0.021194585 0.0058210897 0.42700002 15198205
0.021653563 0.0058210897 0.42700002 15527167
0.022112541 0.0058210897 0.42700002 15526398
0.022624381 0.0058347224 0.42800003 14605296
0.023084436 0.0058347224 0.42800003 14276329
0.023544488 0.0058347224 0.42800003 13749985
0.024004541 0.0058347224 0.42800003 14013663
0.024464594 0.0058347224 0.42800003 14145249
0.024924647 0.0058347224 0.42800003 13421524
0.02544401 0.0058483551 0.42900002 13750489
0.02590514 0.0058483551 0.42900002 13289938
0.026366267 0.0058483551 0.42900002 13158352
0.026827397 0.0058483551 0.42900002 12698571
0.027352132 0.0058619874 0.43000001 12566985
0.027814336 0.0058619874 0.43000001 12370891
0.028342299 0.0058756201 0.43100002 11976133
0.028805576 0.0058756201 0.43100002 11516611
0.029336764 0.0058892523 0.43200001 11056060
0.029801115 0.0058892523 0.43200001 10204867
0.030335531 0.005902885 0.43300003 10204867
0.03087209 0.0059165177 0.43400002 6923199
0.031410806 0.0059301504 0.43500003 6923199
0.031951662 0.0059437826 0.43600002 3699342
0.032494672 0.0059574149 0.43700001 1079451
0.033039834 0.005971048 0.43800002 1342623
0.033663653 0.005998313 0.44000003 32159
0.034214191 0.0060119452 0.44100001 887725
0.035401441 0.0060528433 0.44400004 824760
0.0057987534 0.006515387 0.44300002 6602978
0.0062324363 0.0064712646 0.44000003 8830936
0.0066749095 0.0064418497 0.43800002 9094108
0.0079765311 0.0063536051 0.43200001 11846612
0.0084213438 0.0063388981 0.43100002 12371668
0.0088640079 0.0063241902 0.43000001 12700633
0.0093045225 0.0063094832 0.42900002 12766426
0.0097428868 0.0062947758 0.42800003 13029598
0.010202941 0.0062947758 0.42800003 13226464
0.010662994 0.0062947758 0.42800003 13358050
0.011123047 0.0062947758 0.42800003 13687015
0.011556037 0.0062800683 0.42700002 13818601
0.012015016 0.0062800683 0.42700002 14014697
0.012444781 0.0062653609 0.42600003 14212076
0.012902685 0.0062653609 0.42600003 14540273
0.013360588 0.0062653609 0.42600003 14474480
0.013818491 0.0062653609 0.42600003 14605294
0.014276396 0.0062653609 0.42600003 14671087
0.014734299 0.0062653609 0.42600003 14802668
0.015192203 0.0062653609 0.42600003 14802668
0.015650107 0.0062653609 0.42600003 14210785
0.01610801 0.0062653609 0.42600003 15263473
0.016565913 0.0062653609 0.42600003 16710143
0.017023817 0.0062653609 0.42600003 16776447
0.01748172 0.0062653609 0.42600003 15723770
0.017939625 0.0062653609 0.42600003 14407910
0.018397529 0.0062653609 0.42600003 14868461
0.01885543 0.0062653609 0.42600003 14736875
0.019313334 0.0062653609 0.42600003 14671341
0.019771239 0.0062653609 0.42600003 14737134
0.020229142 0.0062653609 0.42600003 14606064
0.020687046 0.0062653609 0.42600003 14474478
0.021194585 0.0062800683 0.42700002 15132412
0.021653563 0.0062800683 0.42700002 15198205
0.022112541 0.0062800683 0.42700002 14737652
0.022571519 0.0062800683 0.42700002 14145515
0.023084436 0.0062947758 0.42800003 14014181
0.023544488 0.0062947758 0.42800003 13948388
0.024004541 0.0062947758 0.42800003 14079456
0.024464594 0.0062947758 0.42800003 13684698
0.024924647 0.0062947758 0.42800003 13421524
0.025384702 0.0062947758 0.42800003 13355731
0.02590514 0.0063094832 0.42900002 13289938
0.026366267 0.0063094832 0.42900002 12960973
0.026827397 0.0063094832 0.42900002 12698571
0.027352132 0.0063241902 0.43000001 12764364
0.027814336 0.0063241902 0.43000001 12107719
0.028342299 0.0063388981 0.43100002 11712961
0.028805576 0.0063388981 0.43100002 10859197
0.029336764 0.0063536051 0.43200001 10859197
0.0298701 0.006368313 0.43300003 10206157
0.030405588 0.00638302 0.43400002 9087676
0.030943224 0.0063977279 0.43500003 9087676
0.031483013 0.0064124349 0.43600002 4031652
0.032024946 0.0064271423 0.43700001 2321034
0.032569032 0.0064418497 0.43800002 1475494
0.033115268 0.0064565572 0.43900001 1343908
0.033740159 0.0064859721 0.44100001 493994
0.034291774 0.0065006795 0.44200003 428201
0.035401441 0.0065300944 0.44400004 693689
0.0053225765 0.0069915634 0.44300002 6333380
0.0066444301 0.0068810876 0.43600002 8496575
0.0075121773 0.0068179579 0.43200001 10990015
0.0079580666 0.0068021757 0.43100002 11450566
0.0083822664 0.0067706113 0.42900002 11845578
0.008822781 0.0067548291 0.42800003 12766680
0.0092828339 0.0067548291 0.42800003 13095132
0.0097428868 0.0067548291 0.42800003 13095132
0.010179101 0.0067390464 0.42700002 13226718
0.010638081 0.0067390464 0.42700002 13292511
0.011097059 0.0067390464 0.42700002 13226718
0.011556037 0.0067390464 0.42700002 13358304
0.012015016 0.0067390464 0.42700002 14146796
0.012444781 0.0067232642 0.42600003 14212589
0.012902685 0.0067232642 0.42600003 14277871
0.013360588 0.0067232642 0.42600003 14343664
0.013818491 0.0067232642 0.42600003 14606066
0.014276396 0.0067232642 0.42600003 14671859
0.014734299 0.0067232642 0.42600003 14736877
0.015192203 0.0067232642 0.42600003 14934256
0.015650107 0.0067232642 0.42600003 14933736
0.01610801 0.0067232642 0.42600003 16315389
0.016565913 0.0067232642 0.42600003 16776447
0.017023817 0.0067232642 0.42600003 15657461
0.01748172 0.0067232642 0.42600003 14867178
0.017897513 0.006707482 0.42500001 14998764
0.018354341 0.006707482 0.42500001 14539496
0.018811168 0.006707482 0.42500001 14802668
0.019267997 0.006707482 0.42500001 14736875
0.019724825 0.006707482 0.42500001 14868461
0.020229142 0.0067232642 0.42600003 14738420
0.020687046 0.0067232642 0.42600003 14738420
0.021144949 0.0067232642 0.42600003 15264766
0.021653563 0.0067390464 0.42700002 15001594
0.022112541 0.0067390464 0.42700002 14342892
0.022571519 0.0067390464 0.42700002 13882341
0.023084436 0.0067548291 0.42800003 13882595
0.023544488 0.0067548291 0.42800003 13882595
0.024004541 0.0067548291 0.42800003 14080226
0.024464594 0.0067548291 0.42800003 13488089
0.024924647 0.0067548291 0.42800003 13421524
0.025384702 0.0067548291 0.42800003 13158352
0.02590514 0.0067706113 0.42900002 13224145
0.026366267 0.0067706113 0.42900002 13158352
0.026827397 0.0067706113 0.42900002 12764364
0.027352132 0.0067863935 0.43000001 12369606
0.027814336 0.0067863935 0.43000001 11646914
0.028342299 0.0068021757 0.43100002 11844293
0.02887241 0.0068179579 0.43200001 10201785
0.029336764 0.0068179579 0.43200001 10464957
0.0298701 0.0068337405 0.43300003 9879511
0.030405588 0.0068495227 0.43400002 6524068
0.030943224 0.0068653054 0.43500003 6524068
0.031483013 0.0068810876 0.43600002 1797266
0.03209823 0.0069126519 0.43800002 2192024
0.032643389 0.0069284341 0.43900001 1279657
0.033190701 0.0069442168 0.44000003 1082278
0.033816669 0.0069757812 0.44200003 101037
0.034369357 0.0069915634 0.44300002 232623
0.03492419 0.007007346 0.44400004 36018
0.0070315101 0.0072654542 0.43100002 11123402
0.007477399 0.0072485968 0.43000001 11319234
0.0079211378 0.0072317398 0.42900002 11516613
0.0083822664 0.0072317398 0.42900002 11449535
0.008822781 0.0072148829 0.42800003 11252156
0.0092828339 0.0072148829 0.42800003 11777987
0.0097428868 0.0072148829 0.42800003 12567503
0.010179101 0.007198025 0.42700002 12765395
0.010638081 0.007198025 0.42700002 13423325
0.011097059 0.007198025 0.42700002 13291741
0.011528974 0.0071811681 0.42600003 13357534
0.011986878 0.0071811681 0.42600003 13818085
0.012444781 0.0071811681 0.42600003 13883878
0.012902685 0.0071811681 0.42600003 14409457
0.013360588 0.0071811681 0.42600003 14804215
0.013818491 0.0071811681 0.42600003 14737650
0.014242882 0.0071643107 0.42500001 15000822
0.014699711 0.0071643107 0.42500001 15066099
0.01515654 0.0071643107 0.42500001 14210790
0.015650107 0.0071811681 0.42600003 16250367
0.016070196 0.0071643107 0.42500001 16776703
0.016527025 0.0071643107 0.42500001 16183805
0.016983854 0.0071643107 0.42500001 14802152
0.017440682 0.0071643107 0.42500001 14736105
0.017897513 0.0071643107 0.42500001 14736105
0.018354341 0.0071643107 0.42500001 14802668
0.018811168 0.0071643107 0.42500001 14539496
0.019267997 0.0071643107 0.42500001 14539755
0.019724825 0.0071643107 0.42500001 14802927
0.020181656 0.0071643107 0.42500001 14541043
0.020687046 0.0071811681 0.42600003 14870008
0.021144949 0.0071811681 0.42600003 15067387
0.021602852 0.0071811681 0.42600003 14277871
0.022112541 0.007198025 0.42700002 13882341
0.022571519 0.007198025 0.42700002 14013927
0.023030499 0.007198025 0.42700002 13948388
0.023544488 0.0072148829 0.42800003 13751009
0.024004541 0.0072148829 0.42800003 13619675
0.024464594 0.0072148829 0.42800003 13422296
0.024924647 0.0072148829 0.42800003 13421524
0.025384702 0.0072148829 0.42800003 13092559
0.025844755 0.0072148829 0.42800003 12830157
0.026366267 0.0072317398 0.42900002 12566985
0.026827397 0.0072317398 0.42900002 12566985
0.027352132 0.0072485968 0.43000001 12238020
0.027814336 0.0072485968 0.43000001 11516100
0.028342299 0.0072654542 0.43100002 11581893
0.02887241 0.0072823111 0.43200001 10203329
0.029404674 0.0072991685 0.43300003 10400708
0.029939083 0.0073160254 0.43400002 8039883
0.030475648 0.0073328833 0.43500003 8039883
0.031014357 0.0073497402 0.43600002 4684440
0.031627432 0.0073834546 0.43800002 1800094
0.032171514 0.0074003115 0.43900001 2326438
0.032717749 0.0074171689 0.44000003 557220
0.033341572 0.0074508833 0.44200003 688806
0.033893179 0.0074677407 0.44300002 101039
0.03444694 0.0074845981 0.44400004 101039
0.0048463996 0.0079439171 0.44300002 3774138
0.0052865325 0.0078901211 0.44000003 9025231
0.0061616129 0.0078004608 0.43500003 11716570
0.0070315101 0.0077287322 0.43100002 12110295
0.0074600098 0.0076928684 0.42900002 12832471
0.0079211378 0.0076928684 0.42900002 13095643
0.0083627272 0.0076749362 0.42800003 12897751
0.008822781 0.0076749362 0.42800003 12371407
0.0092828339 0.0076749362 0.42800003 12369354
0.0097201234 0.0076570041 0.42700002 11908803
0.010179101 0.0076570041 0.42700002 11711424
0.010638081 0.0076570041 0.42700002 12829905
0.011097059 0.0076570041 0.42700002 13291226
0.011528974 0.0076390719 0.42600003 13620191
0.011986878 0.0076390719 0.42600003 13357019
0.012444781 0.0076390719 0.42600003 13751777
0.012872396 0.0076211398 0.42500001 14014951
0.013329225 0.0076211398 0.42500001 13949158
0.013786053 0.0076211398 0.42500001 14935799
0.014242882 0.0076211398 0.42500001 14935799
0.014699711 0.0076211398 0.42500001 14868720
0.01515654 0.0076211398 0.42500001 14868720
0.015613369 0.0076211398 0.42500001 16710911
0.016070196 0.0076211398 0.42500001 16447743
0.016527025 0.0076211398 0.42500001 14999277
0.016983854 0.0076211398 0.42500001 14670312
0.017440682 0.0076211398 0.42500001 15262449
0.017897513 0.0076211398 0.42500001 15262449
0.018354341 0.0076211398 0.42500001 15526391
0.018811168 0.0076211398 0.42500001 14934254
0.019267997 0.0076211398 0.42500001 14408939
0.019724825 0.0076211398 0.42500001 15001076
0.020181656 0.0076211398 0.42500001 15002107
0.020638485 0.0076211398 0.42500001 14936314
0.021144949 0.0076390719 0.42600003 14804728
0.021602852 0.0076390719 0.42600003 13883626
0.022060756 0.0076390719 0.42600003 14079720
0.022571519 0.0076570041 0.42700002 14079720
0.023030499 0.0076570041 0.42700002 13948386
0.023489477 0.0076570041 0.42700002 13619421
0.023948455 0.0076570041 0.42700002 13290710
0.024464594 0.0076749362 0.42800003 13488089
0.024924647 0.0076749362 0.42800003 13159122
0.025384702 0.0076749362 0.42800003 13027536
0.025844755 0.0076749362 0.42800003 12698571
0.026366267 0.0076928684 0.42900002 12369606
0.026827397 0.0076928684 0.42900002 12238792
0.027352132 0.0077108 0.43000001 12238792
0.027814336 0.0077108 0.43000001 11253441
0.028342299 0.0077287322 0.43100002 10924476
0.02887241 0.0077466643 0.43200001 9875909
0.029404674 0.0077645965 0.43300003 9283772
0.029939083 0.0077825286 0.43400002 5675448
0.030545706 0.0078183925 0.43600002 5675448
0.031085491 0.0078363251 0.43700001 2912142
0.031627432 0.0078542568 0.43800002 1408163
0.032244798 0.0078901211 0.44000003 1868714
0.032792106 0.0079080528 0.44100001 164004
0.033417001 0.0079439171 0.44300002 295590
0.033893179 0.0079439171 0.44300002 36016
0.0069988812 0.0081539955 0.42900002 12437975
0.0074426206 0.0081349891 0.42800003 12898264
0.0079026744 0.0081349891 0.42800003 13029850
0.0083627272 0.0081349891 0.42800003 13292509
0.008822781 0.0081349891 0.42800003 13424095
0.0092611453 0.0081159817 0.42700002 14079972
0.0097201234 0.0081159817 0.42700002 13882593
0.010179101 0.0081159817 0.42700002 13158870
0.010638081 0.0081159817 0.42700002 12500940
0.01107107 0.0080969753 0.42600003 11908803
0.011528974 0.0080969753 0.42600003 12369354
0.011986878 0.0080969753 0.42600003 13290456
0.012415567 0.0080779679 0.42500001 13751007
0.012872396 0.0080779679 0.42500001 13883363
0.013329225 0.0080779679 0.42500001 13554398
0.013786053 0.0080779679 0.42500001 14014951
0.014242882 0.0080779679 0.42500001 14409709
0.014699711 0.0080779679 0.42500001 14606318
0.01515654 0.0080779679 0.42500001 15922175
0.015613369 0.0080779679 0.42500001 16776447
0.016070196 0.0080779679 0.42500001 15986943
0.016527025 0.0080779679 0.42500001 14801900
0.016983854 0.0080779679 0.42500001 14867693
0.017440682 0.0080779679 0.42500001 14868463
0.017897513 0.0080779679 0.42500001 14736877
0.018354341 0.0080779679 0.42500001 14539755
0.018766908 0.0080589615 0.42400002 14605548
0.019222662 0.0080589615 0.42400002 14738420
0.019724825 0.0080779679 0.42500001 15001592
0.020181656 0.0080779679 0.42500001 15331071
0.020638485 0.0080779679 0.42500001 14804728
0.021144949 0.0080969753 0.42600003 14278382
0.021602852 0.0080969753 0.42600003 13949417
0.022060756 0.0080969753 0.42600003 13883365
0.022571519 0.0081159817 0.42700002 13817572
0.023030499 0.0081159817 0.42700002 14079972
0.023489477 0.0081159817 0.42700002 13553628
0.023948455 0.0081159817 0.42700002 13290710
0.024407433 0.0081159817 0.42700002 13290710
0.024924647 0.0081349891 0.42800003 12830157
0.025384702 0.0081349891 0.42800003 12632778
0.025844755 0.0081349891 0.42800003 12698571
0.026366267 0.0081539955 0.42900002 12238020
0.026827397 0.0081539955 0.42900002 12172999
0.027352132 0.0081730029 0.43000001 12107206
0.027814336 0.0081730029 0.43000001 11516361
0.028342299 0.0081920102 0.43100002 10924224
0.02887241 0.0082110167 0.43200001 9746122
0.029404674 0.008230024 0.43300003 7772332
0.030008068 0.0082680378 0.43500003 7772332
0.030545706 0.0082870452 0.43600002 3113121
0.031156626 0.008325059 0.43800002 1797261
0.031771846 0.0083630728 0.44000003 818082
0.032318082 0.0083820792 0.44100001 949668
0.032940824 0.0084200939 0.44300002 164777
0.0048026401 0.0088159433 0.43900001 8440551
0.0065377536 0.008615124 0.42900002 12306643
0.0069825673 0.0085950429 0.42800003 12569815
0.0074426206 0.0085950429 0.42800003 12832725
0.0079026744 0.0085950429 0.42800003 12898518
0.0083627272 0.0085950429 0.42800003 13292763
0.0088021662 0.0085749608 0.42700002 13358556
0.0092611453 0.0085749608 0.42700002 13554398
0.0097201234 0.0085749608 0.42700002 13751777
0.010179101 0.0085749608 0.42700002 13883363
0.010613168 0.0085548786 0.42600003 13883363
0.01107107 0.0085548786 0.42600003 13553882
0.011528974 0.0085548786 0.42600003 12830159
0.011958739 0.0085347965 0.42500001 12303815
0.012415567 0.0085347965 0.42500001 12172229
0.012872396 0.0085347965 0.42500001 13488859
0.013329225 0.0085347965 0.42500001 13423066
0.013753616 0.0085147154 0.42400002 14080744
0.01420937 0.0085147154 0.42400002 13751779
0.014665124 0.0085147154 0.42400002 13882595
0.015120878 0.0085147154 0.42400002 14606318
0.015576632 0.0085147154 0.42400002 15526650
0.016032385 0.0085147154 0.42400002 14868720
0.016488139 0.0085147154 0.42400002 14934002
0.016943892 0.0085147154 0.42400002 14868209
0.017399646 0.0085147154 0.42400002 14802416
0.0178554 0.0085147154 0.42400002 14736623
0.018311154 0.0085147154 0.42400002 14671857
0.018766908 0.0085147154 0.42400002 14474478
0.019222662 0.0085147154 0.42400002 14146796
0.019678416 0.0085147154 0.42400002 15199484
0.020181656 0.0085347965 0.42500001 15199486
0.020638485 0.0085347965 0.42500001 14409970
0.021095313 0.0085347965 0.42500001 14212591
0.021602852 0.0085548786 0.42600003 13883626
0.022060756 0.0085548786 0.42600003 13817318
0.022518659 0.0085548786 0.42600003 13948904
0.023030499 0.0085749608 0.42700002 13422812
0.023489477 0.0085749608 0.42700002 13159640
0.023948455 0.0085749608 0.42700002 13290710
0.024407433 0.0085749608 0.42700002 13027538
0.024924647 0.0085950429 0.42800003 12698571
0.025384702 0.0085950429 0.42800003 12566985
0.025844755 0.0085950429 0.42800003 12238790
0.026366267 0.008615124 0.42900002 12041411
0.026827397 0.008615124 0.42900002 12107719
0.027288523 0.008615124 0.42900002 11515582
0.027814336 0.0086352061 0.43000001 11122889
0.028342299 0.0086552883 0.43100002 10267580
0.028939245 0.0086954515 0.43300003 9485012
0.029472582 0.0087155337 0.43400002 6392741
0.030077051 0.0087556979 0.43600002 6392741
0.030615764 0.008775779 0.43700001 813196
0.031227758 0.0088159433 0.43900001 1668505
0.031844057 0.0088561065 0.44100001 1016744
0.032391366 0.0088761887 0.44200003 1148330
0.0043406282 0.0093089771 0.44000003 8305365
0.0065225144 0.0090550967 0.42800003 12569299
0.0069825673 0.0090550967 0.42800003 12766678
0.0074252309 0.0090339389 0.42700002 13095384
0.00788421 0.0090339389 0.42700002 13226970
0.0083431881 0.0090339389 0.42700002 13226970
0.0088021662 0.0090339389 0.42700002 13424349
0.0092611453 0.0090339389 0.42700002 13884130
0.0097201234 0.0090339389 0.42700002 14015716
0.010155263 0.0090127829 0.42600003 14212328
0.010613168 0.0090127829 0.42600003 14212328
0.01107107 0.0090127829 0.42600003 14211558
0.01150191 0.0089916252 0.42500001 14540523
0.011958739 0.0089916252 0.42500001 14276835
0.012415567 0.0089916252 0.42500001 12368838
0.012872396 0.0089916252 0.42500001 11843264
0.013297861 0.0089704692 0.42400002 12830159
0.013753616 0.0089704692 0.42400002 13948386
0.01420937 0.0089704692 0.42400002 13751007
0.014665124 0.0089704692 0.42400002 13751009
0.015120878 0.0089704692 0.42400002 14145767
0.015576632 0.0089704692 0.42400002 14145767
0.016032385 0.0089704692 0.42400002 14672111
0.016488139 0.0089704692 0.42400002 14736880
0.016943892 0.0089704692 0.42400002 14868466
0.017399646 0.0089704692 0.42400002 14736880
0.0178554 0.0089704692 0.42400002 14671087
0.018311154 0.0089704692 0.42400002 14737650
0.018766908 0.0089704692 0.42400002 14671857
0.019222662 0.0089704692 0.42400002 14541556
0.019678416 0.0089704692 0.42400002 15133693
0.020181656 0.0089916252 0.42500001 14541558
0.020638485 0.0089916252 0.42500001 13949421
0.021095313 0.0089916252 0.42500001 14212591
0.02155214 0.0089916252 0.42500001 13949419
0.022060756 0.0090127829 0.42600003 13817320
0.022518659 0.0090127829 0.42600003 13488355
0.023030499 0.0090339389 0.42700002 13093849
0.023489477 0.0090339389 0.42700002 13093849
0.023948455 0.0090339389 0.42700002 13224917
0.024407433 0.0090339389 0.42700002 13027538
0.024924647 0.0090550967 0.42800003 12699343
0.025384702 0.0090550967 0.42800003 12436171
0.025844755 0.0090550967 0.42800003 12173512
0.026366267 0.0090762526 0.42900002 11976133
0.026827397 0.0090762526 0.42900002 11516613
0.027352132 0.0090974094 0.43000001 11385027
0.027879022 0.0091185663 0.43100002 10269124
0.028408058 0.0091397231 0.43200001 9940159
0.029006077 0.0091820369 0.43400002 6988992
0.029540492 0.0092031937 0.43500003 6988992
0.030146034 0.0092455065 0.43700001 2975619
0.030755883 0.0092878202 0.43900001 1341598
0.031298894 0.0093089771 0.44000003 1736356
0.031916264 0.0093512908 0.44200003 754086
0.03246465 0.0093724476 0.44300002 688293
0.0065225144 0.0095151495 0.42800003 12766678
0.0069825673 0.0095151495 0.42800003 13293022
0.0074252309 0.009492917 0.42700002 13818335
0.00788421 0.009492917 0.42700002 13949921
0.0083431881 0.009492917 0.42700002 13555163
0.0088021662 0.009492917 0.42700002 13818335
0.0092394566 0.0094706854 0.42600003 13884130
0.00969736 0.0094706854 0.42600003 13752544
0.010155263 0.0094706854 0.42600003 13883876
0.010613168 0.0094706854 0.42600003 13949669
0.01107107 0.0094706854 0.42600003 14343914
0.01150191 0.0094484538 0.42500001 14870258
0.011958739 0.0094484538 0.42500001 14540523
0.012415567 0.0094484538 0.42500001 14211558
0.012842108 0.0094262222 0.42400002 13619421
0.013297861 0.0094262222 0.42400002 12698319
0.013753616 0.0094262222 0.42400002 12040389
0.01420937 0.0094262222 0.42400002 13027284
0.014665124 0.0094262222 0.42400002 13553628
0.015120878 0.0094262222 0.42400002 13619421
0.015576632 0.0094262222 0.42400002 13487835
0.016032385 0.0094262222 0.42400002 14079972
0.016488139 0.0094262222 0.42400002 15131638
0.016943892 0.0094262222 0.42400002 15197431
0.017399646 0.0094262222 0.42400002 14671089
0.0178554 0.0094262222 0.42400002 14802675
0.018311154 0.0094262222 0.42400002 14804215
0.018766908 0.0094262222 0.42400002 14870008
0.019222662 0.0094262222 0.42400002 14936314
0.019678416 0.0094262222 0.42400002 14738935
0.02013417 0.0094262222 0.42400002 14475250
0.020638485 0.0094484538 0.42500001 14277871
0.021095313 0.0094484538 0.42500001 13817320
0.02155214 0.0094484538 0.42500001 13356769
0.022060756 0.0094706854 0.42600003 13421792
0.022518659 0.0094706854 0.42600003 13421792
0.022976564 0.0094706854 0.42600003 13487583
0.023489477 0.009492917 0.42700002 13487583
0.023948455 0.009492917 0.42700002 13028054
0.024407433 0.009492917 0.42700002 12567503
0.024924647 0.0095151495 0.42800003 12172999
0.025384702 0.0095151495 0.42800003 12238792
0.02590514 0.0095373802 0.42900002 11976903
0.026366267 0.0095373802 0.42900002 11845317
0.02688993 0.0095596118 0.43000001 11253701
0.027352132 0.0095596118 0.43000001 10924736
0.027943706 0.009604075 0.43200001 9613507
0.028473819 0.0096263075 0.43300003 9350335
0.029072912 0.0096707707 0.43500003 9350335
0.029676309 0.009715233 0.43700001 4755375
0.030215021 0.0097374655 0.43800002 1926276
0.030825943 0.0097819287 0.44000003 1212324
0.031441163 0.0098263919 0.44200003 1146531
0.031988472 0.0098486235 0.44300002 623013
0.0060624606 0.0099752024 0.42800003 11780047
0.0065072747 0.009951896 0.42700002 11383742
0.0069662523 0.009951896 0.42700002 10660019
0.0074252309 0.009951896 0.42700002 11251127
0.00788421 0.009951896 0.42700002 12238022
0.0083431881 0.009951896 0.42700002 13291478
0.0087815523 0.0099285897 0.42600003 14015201
0.0092394566 0.0099285897 0.42600003 14213095
0.00969736 0.0099285897 0.42600003 14213095
0.010155263 0.0099285897 0.42600003 14476013
0.010613168 0.0099285897 0.42600003 14147048
0.011045082 0.0099052824 0.42500001 14212328
0.01150191 0.0099052824 0.42500001 14343914
0.011958739 0.0099052824 0.42500001 14278123
0.012415567 0.0099052824 0.42500001 14343916
0.012842108 0.0098819761 0.42400002 14540525
0.013297861 0.0098819761 0.42400002 14079974
0.013753616 0.0098819761 0.42400002 13619421
0.01420937 0.0098819761 0.42400002 12500940
0.014665124 0.0098819761 0.42400002 12369354
0.015120878 0.0098819761 0.42400002 13027284
0.015576632 0.0098819761 0.42400002 14211558
0.016032385 0.0098819761 0.42400002 13553628
0.016488139 0.0098819761 0.42400002 13619423
0.016943892 0.0098819761 0.42400002 14606318
0.017399646 0.0098819761 0.42400002 14541041
0.0178554 0.0098819761 0.42400002 14277869
0.018311154 0.0098819761 0.42400002 14541043
0.018766908 0.0098819761 0.42400002 15067387
0.019222662 0.0098819761 0.42400002 15067389
0.019678416 0.0098819761 0.42400002 14804217
0.02013417 0.0098819761 0.42400002 14409457
0.020638485 0.0099052824 0.42500001 14212078
0.021095313 0.0099052824 0.42500001 13882343
0.02155214 0.0099052824 0.42500001 14013929
0.022008969 0.0099052824 0.42500001 14013159
0.022518659 0.0099285897 0.42600003 13618401
0.022976564 0.0099285897 0.42600003 13421790
0.023489477 0.009951896 0.42700002 13290204
0.023948455 0.009951896 0.42700002 12830677
0.024407433 0.009951896 0.42700002 12501712
0.024924647 0.0099752024 0.42800003 12436430
0.025384702 0.0099752024 0.42800003 12107465
0.02590514 0.0099985087 0.42900002 11779270
0.026427727 0.010021815 0.43000001 11581891
0.026952466 0.010045122 0.43100002 10860226
0.027415743 0.010045122 0.43100002 10070710
0.027943706 0.010068429 0.43200001 9549261
0.028539576 0.010115041 0.43400002 7970229
0.029139746 0.010161655 0.43600002 7970229
0.030352989 0.010254881 0.44000003 2061462
0.030896001 0.010278188 0.44100001 819365
0.031512294 0.0103248 0.44300002 556193
0.0019848493 0.010776596 0.44200003 38848
0.002459951 0.010776596 0.44200003 361896
0.002921772 0.010727834 0.44000003 2138307
0.0047041802 0.010484018 0.43000001 12043991
0.0051423544 0.010435256 0.42800003 12307163
0.0056024073 0.010435256 0.42800003 13819114
0.0060624606 0.010435256 0.42800003 12305875
0.0065072747 0.010410874 0.42700002 9409441
0.0069662523 0.010410874 0.42700002 7830409
0.0074078422 0.010386493 0.42600003 7960455
0.0078657456 0.010386493 0.42600003 9210522
0.0083236489 0.010386493 0.42600003 10396334
0.0087815523 0.010386493 0.42600003 11909573
0.0092394566 0.010386493 0.42600003 13028567
0.00969736 0.010386493 0.42600003 14015462
0.010155263 0.010386493 0.42600003 14673392
0.010588253 0.010362112 0.42500001 14936564
0.011045082 0.010362112 0.42500001 14541806
0.01150191 0.010362112 0.42500001 14147048
0.011958739 0.010362112 0.42500001 14212328
0.012386355 0.010337731 0.42400002 14212328
0.012842108 0.010337731 0.42400002 14409707
0.013297861 0.010337731 0.42400002 14607086
0.013753616 0.010337731 0.42400002 14870260
0.01420937 0.010337731 0.42400002 14541295
0.014665124 0.010337731 0.42400002 13684444
0.015120878 0.010337731 0.42400002 12500170
0.015576632 0.010337731 0.42400002 12960721
0.016032385 0.010337731 0.42400002 13816030
0.016488139 0.010337731 0.42400002 13619423
0.016943892 0.010337731 0.42400002 13882595
0.017399646 0.010337731 0.42400002 13817572
0.0178554 0.010337731 0.42400002 13817572
0.018311154 0.010337731 0.42400002 14738935
0.018766908 0.010337731 0.42400002 15462655
0.019222662 0.010337731 0.42400002 15067389
0.019678416 0.010337731 0.42400002 14541045
0.02013417 0.010337731 0.42400002 13883111
0.020589923 0.010337731 0.42400002 13817318
0.021095313 0.010362112 0.42500001 13948134
0.02155214 0.010362112 0.42500001 14013927
0.022008969 0.010362112 0.42500001 13881571
0.022518659 0.010386493 0.42600003 13552606
0.022976564 0.010386493 0.42600003 13290204
0.023434468 0.010386493 0.42600003 13027032
0.023948455 0.010410874 0.42700002 12501712
0.024407433 0.010410874 0.42700002 12435919
0.024924647 0.010435256 0.42800003 12304844
0.025384702 0.010435256 0.42800003 12107465
0.02590514 0.010459637 0.42900002 11845578
0.026427727 0.010484018 0.43000001 11450820
0.026952466 0.0105084 0.43100002 10795205
0.027479351 0.010532781 0.43200001 10597826
0.028073074 0.010581545 0.43400002 8301510
0.03096606 0.010776596 0.44200003 425636
0.031512294 0.010800977 0.44300002 425636
0.0010346456 0.011251697 0.44200003 39619
0.0015063316 0.011226241 0.44100001 39105
0.0019803585 0.011226241 0.44100001 38591
0.0024488198 0.011200785 0.44000003 1345448
0.0046932404 0.010920765 0.42900002 12306391
0.0051423544 0.010895309 0.42800003 12503770
0.0056024073 0.010895309 0.42800003 13094878
0.0060482956 0.010869852 0.42700002 13423843
0.0065072747 0.010869852 0.42700002 10659508
0.0069662523 0.010869852 0.42700002 8027788
0.0074252309 0.010869852 0.42700002 7039353
0.0078657456 0.010844396 0.42600003 6841974
0.0083236489 0.010844396 0.42600003 7302525
0.0087815523 0.010844396 0.42600003 8223627
0.0092394566 0.010844396 0.42600003 10066601
0.0096745957 0.01081894 0.42500001 11645633
0.010131424 0.01081894 0.42500001 12502223
0.010588253 0.01081894 0.42500001 14015462
0.011045082 0.01081894 0.42500001 14476013
0.01150191 0.01081894 0.42500001 14212841
0.011930602 0.010793484 0.42400002 14278634
0.012386355 0.010793484 0.42400002 14344427
0.012842108 0.010793484 0.42400002 14344427
0.013297861 0.010793484 0.42400002 14147048
0.013753616 0.010793484 0.42400002 14212328
0.014175856 0.010768027 0.42300001 14607086
0.014665124 0.010793484 0.42400002 15197683
0.015120878 0.010793484 0.42400002 14276581
0.015576632 0.010793484 0.42400002 12763342
0.016032385 0.010793484 0.42400002 12500170
0.016488139 0.010793484 0.42400002 13290456
0.016943892 0.010793484 0.42400002 13685214
0.017399646 0.010793484 0.42400002 13620191
0.0178554 0.010793484 0.42400002 13488605
0.018311154 0.010793484 0.42400002 13488353
0.018766908 0.010793484 0.42400002 14409455
0.019222662 0.010793484 0.42400002 14409455
0.019678416 0.010793484 0.42400002 14409455
0.02013417 0.010793484 0.42400002 13882341
0.020589923 0.010793484 0.42400002 13882341
0.021095313 0.01081894 0.42500001 13882341
0.02155214 0.01081894 0.42500001 13684962
0.022008969 0.01081894 0.42500001 13619169
0.022518659 0.010844396 0.42600003 13224411
0.022976564 0.010844396 0.42600003 13092309
0.023434468 0.010844396 0.42600003 12829137
0.023948455 0.010869852 0.42700002 12303563
0.024407433 0.010869852 0.42700002 12500942
0.024924647 0.010895309 0.42800003 12107465
0.02544401 0.010920765 0.42900002 12041672
0.025965523 0.010946222 0.43000001 11713992
0.026489187 0.010971678 0.43100002 10990269
0.027014999 0.010997134 0.43200001 10203843
0.027606571 0.011048047 0.43400002 10072257
0.02813776 0.011073504 0.43500003 10072257
0.028736854 0.011124415 0.43700001 6922687
0.029340249 0.011175328 0.43900001 3435658
0.029947946 0.011226241 0.44100001 552854
0.030490957 0.011251697 0.44200003 1342370
0.03103612 0.011277154 0.44300002 360359
0.00055954373 0.011726799 0.44200003 39363
0.0010323047 0.011700268 0.44100001 38849
0.0015029159 0.011673737 0.44000003 35250
0.0019713773 0.011647206 0.43900001 34479
0.0024432542 0.011647206 0.43900001 4562877
0.0042518424 0.011434956 0.43100002 11913688
0.0046932404 0.011381893 0.42900002 11912403
0.0051423544 0.011355363 0.42800003 12372954
0.0055893175 0.011328831 0.42700002 12765913
0.0060482956 0.011328831 0.42700002 13423843
0.0065072747 0.011328831 0.42700002 14015464
0.0069662523 0.011328831 0.42700002 13225948
0.0074078422 0.011302301 0.42600003 9803427
0.0078657456 0.011302301 0.42600003 6974328
0.0083236489 0.011302301 0.42600003 6315373
0.0087609384 0.011275768 0.42500001 5789029
0.009217767 0.011275768 0.42500001 6380396
0.0096745957 0.011275768 0.42500001 7696256
0.010131424 0.011275768 0.42500001 9408669
0.010588253 0.011275768 0.42500001 11448252
0.011045082 0.011275768 0.42500001 12831442
0.011474848 0.011249238 0.42400002 13752544
0.011930602 0.011249238 0.42400002 14147302
0.012386355 0.011249238 0.42400002 14278888
0.012842108 0.011249238 0.42400002 13818853
0.013297861 0.011249238 0.42400002 14016232
0.013753616 0.011249238 0.42400002 14212841
0.01420937 0.011249238 0.42400002 14344427
0.014665124 0.011249238 0.42400002 14539753
0.015085215 0.011222706 0.42300001 14079202
0.015576632 0.011249238 0.42400002 14671339
0.016032385 0.011249238 0.42400002 13355479
0.016488139 0.011249238 0.42400002 12302791
0.016943892 0.011249238 0.42400002 12171205
0.017399646 0.011249238 0.42400002 13224917
0.0178554 0.011249238 0.42400002 13751261
0.018311154 0.011249238 0.42400002 13159640
0.018766908 0.011249238 0.42400002 13620191
0.019222662 0.011249238 0.42400002 13948388
0.019678416 0.011249238 0.42400002 14079974
0.02013417 0.011249238 0.42400002 13948388
0.020638485 0.011275768 0.42500001 13948388
0.021095313 0.011275768 0.42500001 13619169
0.02155214 0.011275768 0.42500001 13553376
0.022008969 0.011275768 0.42500001 13422044
0.022518659 0.011302301 0.42600003 13290458
0.022976564 0.011302301 0.42600003 12763344
0.023434468 0.011302301 0.42600003 12894930
0.023948455 0.011328831 0.42700002 12566733
0.024407433 0.011328831 0.42700002 12369354
0.024924647 0.011355363 0.42800003 12106952
0.02544401 0.011381893 0.42900002 11909573
0.025965523 0.011408425 0.43000001 11056576
0.026550647 0.011461487 0.43200001 10596025
0.027077535 0.011488019 0.43300003 9876681
0.02767018 0.011541082 0.43500003 9876681
0.028267128 0.011594143 0.43700001 9087165
0.028868373 0.011647206 0.43900001 4359850
0.029473918 0.011700268 0.44100001 2517646
0.030083764 0.011753331 0.44300002 1146277
-0.0003906599 0.012201902 0.44200003 39363
8.4250874e-05 0.012174295 0.44100001 39620
0.00055827777 0.012174295 0.44100001 38334
0.0010276231 0.012119083 0.43900001 39105
0.0014995001 0.012119083 0.43900001 1477809
0.0019668867 0.012091477 0.43800002 2069946
0.0024376889 0.012091477 0.43800002 7715281
0.0028952104 0.012036265 0.43600002 8636383
0.0033561478 0.01200866 0.43500003 10599886
0.0038061449 0.011953447 0.43300003 11323609
0.0047041802 0.011870628 0.43000001 12898012
0.0051423544 0.011815417 0.42800003 12634840
0.0056024073 0.011815417 0.42800003 12831960
0.0060482956 0.011787809 0.42700002 13095132
0.0065072747 0.011787809 0.42700002 13489120
0.0069499384 0.011760204 0.42600003 13949671
0.0074078422 0.011760204 0.42600003 14015203
0.0078657456 0.011760204 0.42600003 11120311
0.0083041098 0.011732598 0.42500001 7828867
0.0087609384 0.011732598 0.42500001 6644593
0.009217767 0.011732598 0.42500001 5854822
0.0096745957 0.011732598 0.42500001 6381166
0.010131424 0.011732598 0.42500001 6841715
0.010588253 0.011732598 0.42500001 7894403
0.011045082 0.011732598 0.42500001 9474716
0.01150191 0.011732598 0.42500001 11448506
0.011930602 0.011704992 0.42400002 13291480
0.012386355 0.011704992 0.42400002 14278375
0.012842108 0.011704992 0.42400002 14344681
0.013297861 0.011704992 0.42400002 14673646
0.013753616 0.011704992 0.42400002 14542060
0.01420937 0.011704992 0.42400002 14015716
0.014665124 0.011704992 0.42400002 12763342
0.015120878 0.011704992 0.42400002 11973826
0.015576632 0.011704992 0.42400002 12960721
0.016032385 0.011704992 0.42400002 14802925
0.016488139 0.011704992 0.42400002 13816284
0.016943892 0.011704992 0.42400002 12829389
0.017399646 0.011704992 0.42400002 11974080
0.0178554 0.011704992 0.42400002 13224147
0.018311154 0.011704992 0.42400002 13421526
0.018766908 0.011704992 0.42400002 13553112
0.019222662 0.011704992 0.42400002 14079202
0.019678416 0.011704992 0.42400002 14013409
0.020181656 0.011732598 0.42500001 13618653
0.020638485 0.011732598 0.42500001 14079204
0.021095313 0.011732598 0.42500001 13750239
0.02155214 0.011732598 0.42500001 13684446
0.022008969 0.011732598 0.42500001 13223893
0.022518659 0.011760204 0.42600003 13289686
0.022976564 0.011760204 0.42600003 13027538
0.023434468 0.011760204 0.42600003 12632780
0.023948455 0.011787809 0.42700002 12501194
0.024407433 0.011787809 0.42700002 12369608
0.024982883 0.011843022 0.42900002 11909573
0.02544401 0.011843022 0.42900002 11580608
0.02602591 0.011898234 0.43100002 10793920
0.026550647 0.01192584 0.43200001 10267576
0.02773379 0.012036265 0.43600002 9155016
0.028331814 0.012091477 0.43800002 6786468
0.028934134 0.01214669 0.44000003 1731216
0.029540753 0.012201902 0.44200003 2257560
8.4059837e-05 0.012619641 0.44000003 39361
0.00055574591 0.01259096 0.43900001 234167
0.0010276231 0.01259096 0.43900001 826304
0.0014960845 0.012562279 0.43800002 4369098
0.0019623961 0.012533598 0.43700001 4632270
0.0024321233 0.012533598 0.43700001 7250617
0.0028952104 0.012504917 0.43600002 7908547
0.0047041802 0.012332831 0.43000001 12832219
0.0051543689 0.01230415 0.42900002 13555942
0.0056024073 0.012275469 0.42800003 13292511
0.0060482956 0.012246788 0.42700002 12963546
0.0065072747 0.012246788 0.42700002 13094360
0.0069662523 0.012246788 0.42700002 13686497
0.0074078422 0.012218107 0.42600003 14607340
0.0078657456 0.012218107 0.42600003 14409961
0.0083041098 0.012189426 0.42500001 12962515
0.0087609384 0.012189426 0.42500001 9278107
0.009217767 0.012189426 0.42500001 6841715
0.0096745957 0.012189426 0.42500001 6644336
0.010131424 0.012189426 0.42500001 6841717
0.01056334 0.012160745 0.42400002 6381166
0.011019093 0.012160745 0.42400002 6250859
0.011474848 0.012160745 0.42400002 7500926
0.011930602 0.012160745 0.42400002 9804710
0.012386355 0.012160745 0.42400002 12304844
0.012842108 0.012160745 0.42400002 13884130
0.013297861 0.012160745 0.42400002 14673646
0.013753616 0.012160745 0.42400002 14805230
0.01420937 0.012160745 0.42400002 14147300
0.014665124 0.012160745 0.42400002 13619675
0.015120878 0.012160745 0.42400002 11316920
0.015576632 0.012160745 0.42400002 11315893
0.016032385 0.012160745 0.42400002 12565960
0.016488139 0.012160745 0.42400002 15197680
0.016943892 0.012160745 0.42400002 15658231
0.017399646 0.012160745 0.42400002 12960716
0.0178554 0.012160745 0.42400002 11973821
0.018311154 0.012160745 0.42400002 13026511
0.018766908 0.012160745 0.42400002 13618648
0.019222662 0.012160745 0.42400002 13946589
0.019678416 0.012160745 0.42400002 13551831
0.020181656 0.012189426 0.42500001 13421272
0.020638485 0.012189426 0.42500001 13684444
0.021095313 0.012189426 0.42500001 13618651
0.02155214 0.012189426 0.42500001 13618651
0.022008969 0.012189426 0.42500001 13223893
0.022518659 0.012218107 0.42600003 13158100
0.022976564 0.012218107 0.42600003 12960975
0.023434468 0.012218107 0.42600003 12697803
0.023948455 0.012246788 0.42700002 12238022
0.024464594 0.012275469 0.42800003 12172229
0.024982883 0.01230415 0.42900002 11647168
0.025503321 0.012332831 0.43000001 11581375
0.02602591 0.012361512 0.43100002 11255756
0.026612107 0.012418875 0.43300003 10532033
0.027202604 0.012476237 0.43500003 10532033
0.028461182 0.012619641 0.44000003 5078682
0.028999893 0.012648322 0.44100001 1010321
-0.00086576166 0.013152106 0.44200003 39107
-0.00038977602 0.013122349 0.44100001 38845
8.4059837e-05 0.013092593 0.44000003 39616
0.00055574591 0.013062837 0.43900001 1481150
0.0010252822 0.013033082 0.43800002 1481150
0.0014926686 0.013003325 0.43700001 5417414
0.0019623961 0.013003325 0.43700001 5220035
0.0024265579 0.012973569 0.43600002 7050664
0.0028952104 0.012973569 0.43600002 6590113
0.0033484322 0.012914058 0.43400002 7371918
0.0038061449 0.012884302 0.43300003 6648195
0.0042617074 0.012854545 0.43200001 7568268
0.0051663835 0.012795034 0.43000001 11055295
