# .PCD v0.7 - Point Cloud Data file format
VERSION 0.7
FIELDS x y z
SIZE 4 4 4
TYPE F F F
COUNT 1 1 1
WIDTH 1219
HEIGHT 1
VIEWPOINT 0 0 0 1 0 0 0
POINTS 1219
DATA ascii
0.011296242 0.0044254209 0.0036994796
-0.011102816 0.0052036247 0.0038502889
-0.010498432 0.0054966183 0.0034866526
-0.00962051 0.0055597057 0.0032645247
-0.0085416418 0.0053989398 0.0034861767
-0.007584671 0.0055223461 0.0030674539
0.0086830501 0.0055253836 0.0034957898
0.0096608112 0.0055762902 0.0032557112
0.010499787 0.0055126301 0.0034827408
0.011095467 0.0052013663 0.0038196126
-0.010295974 0.0064307842 0.0037215899
-0.0095871473 0.006546888 0.0033007839
-0.0082206717 0.0062479218 0.0036972356
-0.0077244095 0.0065319682 0.0034533625
0.0057098828 0.0069605494 0.003007004
0.0077645639 0.0067365179 0.0034504847
0.0082104644 0.0062677134 0.0035198424
0.0095782774 0.0065629128 0.0032931997
0.010321909 0.0064092944 0.003720399
-0.010033915 0.0071013225 0.0039062419
-0.0094515719 0.0074481843 0.0036314717
-0.0086647272 0.0076070633 0.0032371779
-0.0072778822 0.0072784089 0.0035326749
-0.006703747 0.0077753556 0.0034265541
0.0049351039 0.0076223477 0.0030090285
0.0055272011 0.0075809243 0.0030647919
0.0065356526 0.0077165412 0.0034409382
0.0072722645 0.0072836145 0.0035122761
0.0086404365 0.0076241526 0.0032255647
0.0094553772 0.0074315839 0.0036176532
0.010059956 0.0070679397 0.0038848293
-0.0091308281 0.0081683313 0.0038366897
-0.0084628798 0.0084831743 0.0035896462
-0.0076296148 0.0086395117 0.0032340973
-0.0062836665 0.0082346927 0.0034989428
-0.0055217026 0.0086718379 0.0035014579
-0.0048501678 0.0089470055 0.0031219563
0.0048706327 0.0089407861 0.0031088211
0.0054148179 0.0085153999 0.0034561153
0.0061882162 0.0081913425 0.0037261264
0.0076320283 0.0086431177 0.0032320675
0.0084620751 0.0084779421 0.0035774691
0.00914854 0.0081555061 0.0038288007
-0.0081739342 0.0091460226 0.0038448481
-0.0074512875 0.0094352253 0.0036222716
-0.0065858136 0.009586704 0.0033124899
-0.0055812602 0.0096952831 0.0032274721
-0.0044787237 0.0092612263 0.0035070349
-0.0035216578 0.0096556777 0.0034704609
-0.0026695619 0.0098974379 0.0033742683
-0.0018648019 0.0099787749 0.003065805
0.0018334524 0.0099732606 0.0030414846
0.0026544102 0.0099018123 0.0033708487
0.0034756858 0.0096867252 0.0035047738
0.0044645718 0.0092747044 0.0034946522
0.005590125 0.0096738758 0.0032370596
0.0065748799 0.0095782876 0.003299498
0.0074445573 0.0094555253 0.0036241873
0.0081373146 0.009182984 0.00384144
-0.0070518423 0.010059957 0.0038776782
-0.0064301239 0.010296299 0.0037177855
-0.0055133905 0.010502188 0.0034919928
-0.0045483178 0.010640262 0.0032700447
-0.0036036405 0.010852152 0.003158743
-0.0023517895 0.010121997 0.0035712891
-0.0014795165 0.010183929 0.0035251281
-0.00051426882 0.01026704 0.003465893
0.00051447673 0.010266023 0.0034728674
0.0014846695 0.010181343 0.0034885656
0.0023357726 0.010153228 0.003558934
0.0035861623 0.010849552 0.0031471043
0.0045532151 0.010644186 0.003269224
0.0055014864 0.010506595 0.0034890294
0.0063968776 0.010306224 0.0037041067
0.0071058823 0.010046985 0.003907783
-0.0052290661 0.011096631 0.0038495734
-0.0044230488 0.011293779 0.0037040303
-0.003454661 0.011465233 0.0035833975
-0.0025316402 0.011521142 0.0034396818
-0.0015042271 0.011589199 0.0033532665
-0.00050855649 0.011608087 0.0033040335
0.00051465794 0.011617037 0.0033093831
0.0015381 0.011574673 0.0033416054
0.0025042361 0.011530878 0.0034387701
0.0034522223 0.011473367 0.0035879787
0.0044497228 0.011294146 0.0037083649
0.005212489 0.011104435 0.0038379666
-0.0022650626 0.012072494 0.0038711582
-0.0014520818 0.012138417 0.0037920396
-0.00046112001 0.012195062 0.003771669
0.00050906267 0.012184346 0.0037569576
0.0014373919 0.012146862 0.0037954052
0.0023358935 0.012057899 0.0038700362
-0.0023447871 -0.012092012 0.0040811491
-0.0014740668 -0.012157816 0.0041072709
-0.00051277986 -0.012203723 0.0041078655
0.00047529716 -0.012209444 0.0041075232
0.0014636994 -0.01216268 0.0041013085
0.002340297 -0.012089236 0.0040884484
-0.0052600694 -0.011120868 0.0040891538
-0.0044338573 -0.011308533 0.0041158726
-0.0034231169 -0.01139147 0.0042210058
-0.0025166012 -0.01141098 0.004368139
-0.0015146936 -0.011498034 0.0044352761
-0.00049113494 -0.011578931 0.0044238437
0.00049892633 -0.011572506 0.0044299564
0.0014904107 -0.01151421 0.0044148481
0.0025034924 -0.011414183 0.0043644109
0.003416904 -0.011382914 0.004237751
0.0044474937 -0.011307921 0.0041162027
0.0052654697 -0.011114458 0.0040880642
-0.0071177678 -0.010065082 0.0040905834
-0.006395224 -0.010332359 0.0041149473
-0.0054351659 -0.010412524 0.0043146503
-0.004523675 -0.010622407 0.0044728243
-0.0036437369 -0.010885845 0.0045731738
-0.0023019766 -0.010076432 0.0045032511
-0.0015137447 -0.010224515 0.0044905865
-0.00050661655 -0.010321095 0.0045166537
0.00050657021 -0.010321243 0.0044960524
0.001509407 -0.010221153 0.004493617
0.002301329 -0.010076941 0.0045039672
0.0036462527 -0.010883769 0.0045838687
0.0045367293 -0.010623897 0.0044510658
0.0054690209 -0.010401428 0.0043164426
0.006435846 -0.010310695 0.0041168961
0.0071365279 -0.010056462 0.004089199
-0.0081779668 -0.0091582555 0.0040942989
-0.0074148159 -0.0094130803 0.0041797464
-0.0065349163 -0.009532013 0.0044434541
-0.0056930836 -0.0097470153 0.004600558
-0.0045008464 -0.0092966957 0.0044927984
-0.0035094921 -0.0097195609 0.0045199571
-0.0028095697 -0.0099422615 0.004455497
0.002817167 -0.0099493219 0.0044587343
0.0035053841 -0.0097212363 0.0044930303
0.0045040059 -0.0093000326 0.0044903355
0.0056691929 -0.0097346343 0.004586373
0.0065514147 -0.0095382547 0.0044462802
0.0073949676 -0.0093893474 0.0041926876
0.0081773382 -0.0091725057 0.0040910938
-0.0091613457 -0.008172622 0.0040963092
-0.0084158899 -0.0084004588 0.004233934
-0.0076036528 -0.0086496603 0.0045057046
-0.0062722638 -0.0082004368 0.0045307074
-0.0055432739 -0.0087094437 0.0044635958
0.0055384543 -0.0087299775 0.0045119589
0.0062667951 -0.008216247 0.004505551
0.0076063843 -0.0086691221 0.0044983742
0.0084021604 -0.0084046479 0.0042378842
0.009167321 -0.0081764758 0.0040905187
-0.010080463 -0.0070821806 0.0040847613
-0.0094053186 -0.0073991846 0.0041834083
-0.0086421547 -0.007605012 0.0045143729
-0.0072969948 -0.0073090508 0.0044961818
-0.0067554512 -0.0078093642 0.0044816877
0.0067684609 -0.0078118104 0.0044820937
0.0073030721 -0.0073184348 0.0044990145
0.0086613586 -0.0075997775 0.0045128874
0.0094051706 -0.0074067898 0.0041849329
0.010072042 -0.0071174428 0.0040680901
-0.010319217 -0.0064103534 0.0041178036
-0.0095277084 -0.006536366 0.0044614873
-0.0082145901 -0.0062665758 0.0045045409
-0.0078073391 -0.0067623821 0.0045204069
0.0078030229 -0.006785552 0.0044778837
0.0081898412 -0.0062914863 0.0045189187
0.0095387856 -0.0065429341 0.0044587841
0.010318501 -0.0064317542 0.0041141794
-0.011122224 -0.0051999702 0.0040930226
-0.010402335 -0.0054605547 0.0043206797
-0.0097468523 -0.0056952117 0.0045518503
-0.0087192049 -0.0055338787 0.004496037
0.0087138573 -0.0055449684 0.0044948617
0.0097501446 -0.0056953155 0.0045779697
0.010419381 -0.0054582814 0.0043143118
0.011138406 -0.0052460735 0.0040807743
-0.011303227 -0.0044464334 0.0041167545
-0.010629029 -0.0045141811 0.0044632358
-0.0092927022 -0.0045083798 0.0044860672
0.0092955101 -0.0045048371 0.0044946386
0.010626501 -0.0045244345 0.0044832807
0.011300498 -0.0044207345 0.0041211657
-0.011390709 -0.0034257472 0.0042110365
-0.010874294 -0.0036499891 0.0045805401
-0.0097127147 -0.0035041168 0.0044862749
0.0097259935 -0.0035051764 0.0045168158
0.010883686 -0.0036681497 0.0045691496
0.011379626 -0.0034287455 0.0042324914
-0.012063381 -0.0024007377 0.0040895301
-0.01139031 -0.0025261175 0.004387897
-0.010074353 -0.0023048692 0.0045131249
-0.009941035 -0.0028026826 0.0045054792
0.0099553755 -0.0028239761 0.0044833501
0.010077389 -0.0023215183 0.004532625
0.01141213 -0.0025054284 0.0043870714
0.012088623 -0.0023604073 0.0040863678
-0.012160446 -0.0014901103 0.004102705
-0.011502095 -0.001533149 0.0044124234
-0.010215992 -0.0014952949 0.0045009111
0.010229481 -0.0014906091 0.0044936128
0.011518439 -0.001499173 0.0044140616
0.012165204 -0.0014489533 0.0041016177
-0.012202539 -0.00052163791 0.0041064299
-0.011569189 -0.00050010812 0.004427304
-0.010313259 -0.00048828486 0.004501678
0.010327457 -0.0005004803 0.0044984263
0.011568589 -0.00048982975 0.0044469475
0.012202158 -0.00050391466 0.0041113961
-0.012203601 0.00049932569 0.0041056876
-0.011568652 0.00049257604 0.0044427561
-0.010316903 0.00050379406 0.0045242431
0.010327755 0.00050435273 0.0045012226
0.011575026 0.00051220955 0.0044343532
0.012206585 0.00052108086 0.0041091177
-0.012156104 0.0014655107 0.004103756
-0.011510232 0.0014982487 0.0044156113
-0.010219262 0.0014992186 0.004510202
0.010229059 0.0015092588 0.0045101587
0.011520825 0.0015045494 0.004417547
0.012164932 0.0014878025 0.0041002287
-0.012073256 0.0023570566 0.0040895836
-0.011400977 0.0025182003 0.0043751313
-0.010076883 0.0022859308 0.0044886218
-0.0099393353 0.0027917328 0.00451825
0.0099553335 0.0028141371 0.0045113778
0.01007297 0.0023272834 0.0044885064
0.011391855 0.0025142939 0.0043920022
0.012087639 0.0023986753 0.0040827435
-0.01142665 0.0033863958 0.0042124074
-0.010878021 0.0036392454 0.0045786486
-0.0097167129 0.0035054004 0.0045042937
0.0097213211 0.0035246471 0.0044948258
0.010884509 0.0036605012 0.0045744851
0.011391026 0.0034116327 0.0042246897
-0.01129481 0.0044469703 0.0041184518
-0.010619973 0.0045319563 0.0044787596
-0.0092971073 0.0045019067 0.0044834423
0.0093140397 0.0044911113 0.0045041163
0.010633922 0.0045440146 0.0044363844
0.011303746 0.0044677877 0.0041151023
-0.011110255 0.0052364906 0.0040925704
-0.010384906 0.0054510748 0.0043323739
-0.0097463336 0.0056779012 0.0045437687
-0.0087048691 0.0055490094 0.0044717705
0.0087133693 0.0055672252 0.0045183836
0.0096841929 0.0056376108 0.0046055177
0.010406889 0.0054574711 0.004321747
0.01111905 0.0052797175 0.0040871245
-0.010315639 0.0064056511 0.0041170595
-0.009540936 0.0065239444 0.0044437395
-0.0082060453 0.0062680752 0.0045132572
-0.0078158798 0.0067538428 0.0044784471
0.0078145387 0.0067804907 0.0044966782
0.0082217753 0.0062774071 0.004513476
0.0095281377 0.0065398612 0.0044637066
0.010308977 0.0064296112 0.0041176402
-0.01005139 0.0071056848 0.0040801656
-0.0093986057 0.0074155466 0.0041849916
-0.0086635025 0.0075876922 0.0045090877
-0.0073120203 0.0073030083 0.004520291
-0.0067781578 0.0078002275 0.0044949111
0.00677431 0.0078143952 0.0044979774
0.0073043965 0.0073102918 0.0044815224
0.0086557316 0.0076068663 0.004502655
0.0093897441 0.0074100415 0.004191481
0.010057351 0.0071088835 0.0040867371
-0.0091663059 0.0081768073 0.0040933006
-0.0084202653 0.0083978837 0.0042380183
-0.0076058093 0.0086454218 0.0045084893
-0.0062778457 0.0082094781 0.0044919485
-0.0055271047 0.0087234788 0.0045003765
0.005550616 0.0087104207 0.0044766441
0.006265813 0.0082065109 0.0045095501
0.0075994451 0.0086706029 0.0044872179
0.0084031159 0.008421503 0.0042391378
0.009173844 0.0081570903 0.0040934812
-0.0081586046 0.0091852732 0.0040919534
-0.0074098087 0.009398343 0.0041822866
-0.0065430477 0.0095383516 0.0044499543
-0.0056440467 0.009710961 0.0045758337
-0.0045009744 0.0092916964 0.004485561
-0.0035126896 0.0097157825 0.0045015151
-0.0028098663 0.0099435654 0.0045116991
0.0028070321 0.0099433158 0.0045059198
0.0034868151 0.0097291116 0.0045067603
0.0045092423 0.0093009435 0.0045027072
0.0056654778 0.0097246207 0.0045846542
0.0065355315 0.0095333681 0.0044676149
0.0073945844 0.0094056278 0.00419656
0.0081982473 0.0091536446 0.0040907199
-0.0070980131 0.010074649 0.0040741311
-0.0063978741 0.010326311 0.0041176607
-0.0054479516 0.010407986 0.0043223202
-0.0045440248 0.010618716 0.004449435
-0.0036512529 0.010880907 0.0045720441
-0.0023341738 0.010064691 0.0044998657
-0.0014999455 0.010221265 0.0045141592
-0.00050598325 0.01032022 0.0045035048
0.00051705545 0.010319117 0.0044979281
0.0015032738 0.010227951 0.0045136777
0.002304282 0.010078456 0.0045066141
0.0036552469 0.010883326 0.0045605409
0.0045250976 0.010629018 0.0044557843
0.0054517146 0.01039551 0.0043228753
0.0064268331 0.010309356 0.0041182754
0.0071113454 0.01007843 0.0040904377
-0.005223528 0.011130079 0.0040879352
-0.0044430299 0.01129301 0.0041205483
-0.0034075873 0.011389175 0.0042288899
-0.0025116962 0.011404713 0.0043828217
-0.0015201432 0.011515479 0.0044079721
-0.00051598932 0.011575803 0.0044260644
0.00049638556 0.011579318 0.0044200723
0.0014999501 0.011513031 0.0044065095
0.0025224283 0.011399142 0.0043877866
0.0034037046 0.011404941 0.0042272154
0.0044440781 0.01130421 0.0041188966
0.0052637467 0.011115096 0.0040894463
-0.0023522086 0.012089128 0.0040844479
-0.0014763087 0.012161578 0.0041039782
-0.00050862937 0.012218807 0.0041072234
0.00050639018 0.012210605 0.0041080532
0.0014555204 0.012165715 0.004100054
0.0024286928 0.01207089 0.0040889094
-0.0031180358 -0.011036695 0.0054832045
-0.0025675611 -0.011133906 0.0054270979
-0.0014812611 -0.011245287 0.0051721805
-0.00053663692 -0.011373108 0.0054978393
0.00049151102 -0.011449496 0.0055143326
0.0015009225 -0.011366805 0.0055006891
0.0024864767 -0.011190507 0.0054948409
0.0031256035 -0.011037935 0.005500251
-0.0053041033 -0.01016253 0.0054801283
-0.0045030448 -0.010539173 0.0055115721
-0.0036177349 -0.01087204 0.0054938998
-0.0022576754 -0.010391991 0.0055150222
-0.0015151892 -0.010463936 0.0054660197
-0.00060857029 -0.010483877 0.0055293902
0.00051367295 -0.010325239 0.0054929797
0.001517704 -0.010224492 0.0054944404
0.0023031561 -0.010079722 0.0054885219
0.0036319094 -0.010875021 0.0054962994
0.004515911 -0.010539629 0.0055024899
0.0053135245 -0.010163948 0.0054876115
-0.0070447777 -0.0090442114 0.0054997299
-0.0065107914 -0.0094251158 0.0054979371
-0.0056534009 -0.0097106509 0.0055303331
-0.0045122793 -0.0092978841 0.0054981038
-0.0035155264 -0.0097235143 0.0055212914
-0.0028213735 -0.0099426638 0.0054556765
0.0028160643 -0.0099523747 0.0055041336
0.0035084621 -0.0097229704 0.0055059115
0.0045146751 -0.0093008373 0.0055003627
0.0056539779 -0.0097100465 0.0055143405
0.0065083662 -0.0094366306 0.0054853284
0.0070488197 -0.0090528214 0.005515947
-0.0081085376 -0.0081060044 0.0054790974
-0.0075503117 -0.0086159762 0.0054949941
-0.0062921969 -0.0082059102 0.0055014347
-0.005563328 -0.0087144105 0.0054814522
0.0055515566 -0.0087261144 0.0055088168
0.0062754746 -0.0082090134 0.0054890579
0.0075537926 -0.008627546 0.0055023525
0.0081074685 -0.0081201149 0.0054866578
-0.0090431571 -0.0070458669 0.0054739527
-0.0086106686 -0.0075561777 0.0055157039
-0.0073067904 -0.0073084068 0.0054980838
-0.0067774262 -0.0078053679 0.0055039162
0.0067729028 -0.0078163715 0.0055126864
0.0073151775 -0.0073159277 0.0054914146
0.0086087026 -0.0075641279 0.0054974868
0.0090404088 -0.0070625315 0.0054935007
-0.0094200522 -0.0065157269 0.0055074305
-0.0082123149 -0.0062793638 0.0054783844
-0.0078040357 -0.0067725945 0.0054876134
0.0078022373 -0.0067996145 0.0054622712
0.0082023777 -0.0062984149 0.0054970356
0.009438728 -0.0065049403 0.0054909443
-0.01016248 -0.0052977959 0.0055011185
-0.0097510731 -0.0056769038 0.0054877819
-0.0087193465 -0.0055422927 0.0054962337
0.0087162061 -0.0055653462 0.0054923133
0.0097583877 -0.0057044188 0.0055096392
0.010164 -0.005317139 0.005492622
-0.010538796 -0.0044975532 0.0054904958
-0.0093000224 -0.0045085326 0.0055193468
0.0093034459 -0.0045041842 0.005508149
0.010547441 -0.004504269 0.0054985154
-0.011035501 -0.003109172 0.0054216566
-0.010871815 -0.0036065993 0.0054996158
-0.0097205834 -0.0034987796 0.005493972
0.0097323935 -0.0035039573 0.0054944428
0.010874542 -0.003626371 0.0054908916
0.011039776 -0.0031304276 0.0054975874
-0.01118056 -0.0024841158 0.0054922551
-0.010078201 -0.0023157864 0.0055137323
-0.0099437702 -0.0028078563 0.0054787793
0.0099548716 -0.0028504066 0.0054885377
0.010077278 -0.0023358967 0.0055103027
0.011193207 -0.0024959787 0.0055019842
-0.011357383 -0.0015072664 0.0055235988
-0.010220373 -0.0014910614 0.0055094026
0.010235133 -0.0014894891 0.0054904246
0.011372458 -0.0015024641 0.0055028126
-0.011442005 -0.00051947124 0.0054992675
-0.010319205 -0.00051200925 0.0054954928
0.01033284 -0.00050043286 0.0054969457
0.011454077 -0.00050075364 0.0055126608
-0.011441775 0.00049862743 0.0055093779
-0.01032241 0.00049413886 0.0055217762
0.010332345 0.00049716857 0.0054719327
0.011455677 0.00049527799 0.005494568
-0.011360664 0.0014978945 0.0055026836
-0.01022524 0.0014963675 0.0055068177
0.010237716 0.0014952517 0.0055133365
0.011370604 0.0015019627 0.0055066734
-0.011180068 0.002498972 0.0055064666
-0.010080565 0.0022953909 0.0055058626
-0.0099424152 0.0027962686 0.0055049583
0.0099561065 0.002835294 0.0055121672
0.010076706 0.0023283274 0.0055135256
0.01119014 0.0024967853 0.0054966342
-0.011032426 0.0031161625 0.0054524643
-0.010868258 0.0036073523 0.0055132383
-0.0097205257 0.0035108011 0.0054929275
0.009742694 0.0034851145 0.0054891319
0.010878853 0.0036226083 0.0055065611
0.011039744 0.0031346802 0.0054614036
-0.010528411 0.0045185513 0.005499491
-0.0093045188 0.0044998587 0.0055036573
0.009309967 0.0045149974 0.0055066696
0.010553955 0.0044911914 0.0054892595
-0.010161635 0.0052974024 0.0055141244
-0.0097159566 0.0056447643 0.0055259173
-0.0087214578 0.0055483128 0.0055014011
0.0087203179 0.0055689178 0.005516829
0.0097085852 0.0056501399 0.0055045877
0.010164989 0.0053162626 0.0055001914
-0.0094346264 0.0064927577 0.0054901256
-0.008218213 0.0062772864 0.0055042803
-0.0078096311 0.0067754807 0.0054696919
0.0078174472 0.006786339 0.0054864916
0.0082175052 0.0062926873 0.0055035274
0.0094453506 0.0064970348 0.0055047502
-0.0090378774 0.0070506702 0.0055014296
-0.0086070551 0.0075516095 0.0055132918
-0.0073068435 0.0073181521 0.0055106482
-0.0067695854 0.0078139212 0.0054861596
0.0067750756 0.0078266924 0.0055076838
0.0073059909 0.0073148254 0.0055096485
0.0086097075 0.0075720469 0.0054991632
0.0090457452 0.0070570903 0.0055177296
-0.008102593 0.0081123384 0.0055101975
-0.0075521241 0.0086171478 0.0055048289
-0.0062819435 0.0082129305 0.0055045118
-0.0055377716 0.0087216385 0.0054958141
0.005556019 0.0087249214 0.0055083805
0.0062892935 0.0082061617 0.0055051884
0.0075679589 0.0086115412 0.0054938714
0.0081154676 0.0081116315 0.0054738815
-0.0070522642 0.0090391347 0.0055230535
-0.0064918683 0.0094402172 0.0055074343
-0.0056536333 0.0097082481 0.0055163545
-0.0044942014 0.0092969304 0.0055081337
-0.0034904052 0.0097273011 0.0054878518
-0.0028251812 0.0099439528 0.0055161947
0.0028058544 0.009947476 0.0055009006
0.0034908503 0.0097347191 0.0054913536
0.0044978056 0.0093141757 0.0055033658
0.0056539928 0.0097101014 0.0055326731
0.0064990344 0.0094418703 0.0054941336
0.0070558572 0.0090455571 0.0054814825
-0.0053021968 0.010162076 0.00550162
-0.0045071235 0.01053935 0.0054807356
-0.0036069851 0.010877601 0.0055012866
-0.0023381815 0.010069773 0.0055046431
-0.0015069778 0.010221686 0.0055075744
-0.00050025899 0.010323553 0.0055033583
0.00060831552 0.010481862 0.0055138101
0.0015075516 0.010461967 0.005456232
0.0022579581 0.010419587 0.0055358526
0.0036237449 0.010874177 0.0054966509
0.004511368 0.010540995 0.0054938132
0.0053071133 0.010167326 0.0054945559
-0.0031155453 0.011035785 0.0054983632
-0.0025088375 0.01118309 0.0054948353
-0.001482896 0.011368998 0.0054876814
-0.00050574244 0.011450518 0.0055018575
0.00053075893 0.011379283 0.0054877307
0.0014797178 0.0112563 0.0051710587
0.0025573599 0.011142118 0.0054278122
0.0031251311 0.011037963 0.0055082804
-0.0030974459 -0.011033358 0.0065083569
-0.0026722113 -0.011109099 0.0064900755
-0.0005112876 -0.011367111 0.0064947936
0.00050113077 -0.011443138 0.0065164156
0.0015031121 -0.011359219 0.0064988895
0.0025095979 -0.011177427 0.0065202545
0.0031064218 -0.011034937 0.0064634397
-0.0052964902 -0.010156928 0.0064691561
-0.0044943085 -0.010533215 0.0064963032
-0.0036026924 -0.01086846 0.0065099788
-0.0022681535 -0.01041847 0.006481206
-0.0016101281 -0.010365549 0.0064203991
-0.00063125812 -0.010497091 0.006538047
0.00050121034 -0.010330589 0.0064884671
0.0015068097 -0.01023079 0.0065040356
0.0023052152 -0.010080168 0.0064787352
0.0036107854 -0.01087468 0.006503243
0.0045197173 -0.010528111 0.0065093078
0.0053005428 -0.010160889 0.0065015401
-0.0070404443 -0.0090369815 0.0064573549
-0.0065067261 -0.0094173085 0.0064921835
-0.0056462134 -0.0097139264 0.00648482
-0.0044927662 -0.0093139401 0.0064969622
-0.0035033633 -0.0097332997 0.0065104729
-0.0028275319 -0.0099455016 0.0065225442
0.0028116915 -0.0099539282 0.0065001743
0.0035162838 -0.0097245146 0.0065112519
0.0045062928 -0.0093096066 0.0065024956
0.0056608627 -0.0097424518 0.0065125311
0.006529585 -0.009413504 0.0064858836
0.0070500262 -0.0090407217 0.0065079355
-0.0080998018 -0.0081026973 0.0064813006
-0.0075434572 -0.0086100511 0.0064976504
-0.0062994603 -0.0082081128 0.0064849667
-0.0055615688 -0.0087238215 0.0064967978
0.0055324133 -0.0087405369 0.0065057953
0.0062712403 -0.0082172127 0.0064949864
0.0075592473 -0.0086118318 0.0065031014
0.0081073642 -0.0081080412 0.0064870832
-0.0090375924 -0.0070391963 0.0064609228
-0.0086071678 -0.0075472435 0.0064918762
-0.0073208599 -0.0073030321 0.0065056686
-0.0067836209 -0.0078077838 0.0065232748
0.0067720865 -0.007825207 0.0065083858
0.0073198108 -0.0073234048 0.0065064696
0.0086048814 -0.0075563439 0.0064841523
0.0090425471 -0.0070470534 0.006450227
-0.0094125243 -0.0065110801 0.0065127709
-0.0082053086 -0.0062975925 0.006472114
-0.0078046233 -0.0067774053 0.0064695501
0.0078325924 -0.0067777545 0.0064974995
0.0082206018 -0.0062820269 0.006499039
0.0094229793 -0.0065104063 0.006495005
-0.010155398 -0.0052928003 0.0064824098
-0.0097216163 -0.0056566978 0.0065045804
-0.0087258453 -0.0055413535 0.0065071476
0.0087250266 -0.0055626142 0.0064982632
0.0097399307 -0.005670391 0.0064877938
0.010157426 -0.0053073461 0.0064825038
-0.010532619 -0.0044906009 0.0065069166
-0.0093060415 -0.0045102076 0.0065122209
0.0093098497 -0.0045052851 0.0065135276
0.010538978 -0.0045001674 0.0064934278
-0.011030681 -0.0030929653 0.0064688283
-0.010865422 -0.0036013916 0.0064940867
-0.009721675 -0.0035137569 0.0065008416
0.0097431643 -0.0034896664 0.0065141455
0.010872556 -0.0035987727 0.0065142149
0.011036522 -0.0031094979 0.0064852578
-0.011164944 -0.0025056528 0.0064783618
-0.010085199 -0.0023135953 0.0064942734
-0.0099437144 -0.002822031 0.0064572999
0.009960969 -0.0028541554 0.0065164454
0.010074619 -0.0023618112 0.00648539
0.011186426 -0.0024811255 0.0064816358
-0.011348676 -0.0015046253 0.0064979773
-0.010222778 -0.0015069295 0.0065040919
0.010238793 -0.0015025998 0.006501907
0.011364483 -0.0014908293 0.006509468
-0.011433778 -0.00050272152 0.0065151309
-0.010326529 -0.00050573208 0.0065266802
0.010338795 -0.00049111259 0.0065085222
0.011444382 -0.00050662138 0.0065051196
-0.011432222 0.00050237664 0.006499711
-0.010327695 0.00048076504 0.0064922101
0.010337069 0.00048942474 0.0064878967
0.011446578 0.0005007998 0.0065041767
-0.011351039 0.0014969053 0.0065231803
-0.010231832 0.0014841094 0.0065117511
0.010244586 0.0014980799 0.0065020286
0.01136271 0.0014910175 0.0064929295
-0.011170899 0.0024938923 0.0065045836
-0.010085039 0.0023002017 0.0065097744
-0.009943448 0.0028088016 0.0064830626
0.0099642901 0.0028311026 0.0065124948
0.010078709 0.0023368204 0.0065113367
0.011179517 0.0024942425 0.0065168934
-0.011029322 0.0030932233 0.0065109776
-0.010861552 0.0035948618 0.006502701
-0.0097286412 0.0035041412 0.0065217135
0.0097405901 0.0035089771 0.0065078125
0.010871518 0.0036201924 0.0065043853
0.011037798 0.0031101434 0.0064862715
-0.010522487 0.0045084986 0.0065014092
-0.0093156155 0.004487324 0.0064994842
0.0093206707 0.0045086453 0.0065014889
0.010542272 0.0044962126 0.0065228371
-0.010149869 0.0052977703 0.0064992933
-0.0097206933 0.0056514414 0.0065370868
-0.0087110149 0.0055736606 0.00651578
0.0087354565 0.0055570374 0.0064980243
0.0096983416 0.0056455345 0.0065038307
0.010158468 0.0053102928 0.0064901458
-0.009418794 0.006498321 0.0064926916
-0.0082193492 0.0062860041 0.0065105096
-0.0078213504 0.0067724865 0.0065083378
0.0078211967 0.0067913448 0.0064952853
0.008219392 0.0063007344 0.0065063569
0.0094199451 0.0065185539 0.0064914026
-0.009033489 0.0070435428 0.0064133145
-0.0085962405 0.00755216 0.0065049529
-0.0073189349 0.0073160594 0.006518702
-0.0067849047 0.0078063072 0.0064885789
0.0067834589 0.0078272894 0.0064554713
0.0073044547 0.0073228483 0.0065064197
0.0086189015 0.0075483541 0.0064963722
0.0090356618 0.007055853 0.0065128263
-0.0081003159 0.0081031136 0.0064643901
-0.0075487085 0.0086093489 0.0064973161
-0.0062898565 0.0082120178 0.0064928504
-0.0055423453 0.0087229051 0.0064769764
0.005566448 0.0087262103 0.0065122461
0.0062866863 0.0082132211 0.0065240264
0.0075494298 0.0086159846 0.0065084854
0.0081025157 0.0081123179 0.006480298
-0.0070464849 0.0090328576 0.0064996928
-0.0064779306 0.0094389077 0.006508965
-0.0056618112 0.0097283069 0.0065293093
-0.0045142719 0.0092913881 0.0065030893
-0.0035107543 0.009723288 0.0064951805
-0.0028355357 0.0099442871 0.0064928019
0.0028173369 0.0099503025 0.0064914585
0.0035046113 0.0097369859 0.0065000104
0.0044985772 0.0093211532 0.0064749108
0.0056402627 0.0096969698 0.0065171155
0.006509813 0.0094238156 0.0064902403
0.0070434469 0.0090440996 0.0065268087
-0.0053000934 0.010151101 0.0064989435
-0.0045041367 0.010531239 0.0064944141
-0.0035881556 0.01087491 0.0065083676
-0.0023280708 0.010077845 0.0065079685
-0.0015007787 0.010226389 0.0065068146
-0.00050531764 0.010324947 0.0065057664
0.00062440225 0.010488422 0.0065133455
0.0016123995 0.010374215 0.006409524
0.0022588843 0.010411245 0.0065122158
0.0036140773 0.010868893 0.0065019014
0.0044933073 0.01053907 0.0065054498
0.005294784 0.010164037 0.0064908075
-0.0030931965 0.011031504 0.00651959
-0.002498559 0.011175167 0.0064915046
-0.001505328 0.011356655 0.0065006497
-0.00050111033 0.011443359 0.0064909928
0.00049883145 0.011374872 0.0065062628
0.002675846 0.011105489 0.0064932886
0.003112715 0.01103258 0.0064981729
-0.0030934417 -0.011025374 0.007511788
-0.002678971 -0.011098206 0.0074884314
-0.00046597846 -0.011273441 0.0071510244
0.00047943185 -0.011266599 0.0071777212
0.0014709809 -0.011241538 0.0071644075
0.0024720989 -0.011127412 0.0071497438
0.0030851904 -0.011024577 0.0070988527
-0.0052951099 -0.010147938 0.0074723847
-0.0045025167 -0.010520012 0.0074992324
-0.0035963471 -0.010862129 0.007492695
-0.0022798721 -0.010397353 0.0074972557
-0.0018402751 -0.010308616 0.0075013912
-0.00049185858 -0.01060502 0.0071691158
0.00052035839 -0.010578666 0.0071912524
0.0015190229 -0.010526282 0.0072026127
0.0024765143 -0.010497625 0.0072163497
0.0034789739 -0.010511302 0.0072143977
0.0044547883 -0.010344382 0.0071962904
0.0052088224 -0.010138047 0.0071470756
-0.0070299548 -0.0090345656 0.0074453559
-0.0065089883 -0.0094053112 0.0074854759
-0.0056242188 -0.009678673 0.0075152819
-0.0045062052 -0.0093139568 0.0074990741
-0.0035106055 -0.0097365361 0.0075259185
-0.0028327906 -0.0099491356 0.0075128633
0.0028257361 -0.0099541238 0.0071076998
0.0035774764 -0.0097829383 0.0071813618
0.0045498856 -0.0095568793 0.0072146449
0.0054980651 -0.009510098 0.0072402195
0.0063806367 -0.009335733 0.0071976865
0.0070330319 -0.0090262098 0.0071461773
-0.0080960672 -0.0080942092 0.0074872319
-0.0075405133 -0.0086010909 0.0074889278
-0.0063011353 -0.008215283 0.0075035212
-0.0055638542 -0.0087301182 0.007515694
0.0056329696 -0.0087712165 0.0071912371
0.0065154429 -0.0085058464 0.007245467
0.0074368655 -0.0084447889 0.0072231013
0.0081145875 -0.0080794021 0.0071543143
-0.0090279393 -0.0070369071 0.0074813324
-0.0085924314 -0.0075509287 0.0074984054
-0.007319856 -0.0073130527 0.0074961241
-0.0067868261 -0.0078118658 0.0074944831
0.0068034427 -0.007832245 0.0071823695
0.0075360881 -0.0074520381 0.0074440651
0.0085247122 -0.0075672036 0.0075260876
0.0090385806 -0.0070375381 0.0075014234
-0.0094090067 -0.0065001105 0.0075073326
-0.0082269628 -0.0062804106 0.0074647581
-0.0078066983 -0.0067814752 0.0075053219
0.0078284368 -0.0067922799 0.0074892859
0.0082164779 -0.0062967842 0.0074841878
0.0094060712 -0.0065169325 0.0074987756
-0.010146418 -0.0052901041 0.0075153462
-0.0097250259 -0.0056617553 0.0075280839
-0.0087225856 -0.0055555953 0.0074901688
0.0087363133 -0.0055569578 0.0075000781
0.0097222216 -0.0056655519 0.0074961884
0.010146951 -0.0053044236 0.0074617132
-0.01051523 -0.0045092758 0.0075169592
-0.0093174735 -0.0045011672 0.007484749
0.0093184887 -0.0045032119 0.0075101843
0.010524835 -0.0045067137 0.0074986876
-0.011024034 -0.0030850107 0.007448371
-0.010864067 -0.0035805362 0.0074894517
-0.0097328648 -0.0034993661 0.0075132689
0.0097414022 -0.0035074484 0.0075082728
0.010865611 -0.0035867502 0.0075002755
0.011030435 -0.0030973295 0.0074754506
-0.011153191 -0.0025112506 0.0075010424
-0.010084079 -0.0023430455 0.0075012292
-0.0099485302 -0.0028207018 0.0074435971
0.0099655744 -0.0028619904 0.0075149513
0.010079529 -0.0023530575 0.0074876165
0.01117123 -0.0025020039 0.007474775
-0.011339906 -0.0015135276 0.0074647949
-0.010231023 -0.0014911025 0.0074980315
0.010246809 -0.0014928072 0.0075017209
0.011351826 -0.0015078004 0.0075089643
-0.011425324 -0.00049814419 0.0074932133
-0.010336087 -0.00049677509 0.0075170742
0.010341872 -0.00051026727 0.0074870093
0.011434542 -0.00050332909 0.0075062965
-0.011422202 0.00050331576 0.0074986457
-0.010332558 0.00049002166 0.0074836803
0.010343841 0.00048679506 0.0075147217
0.011437177 0.00050043472 0.0075053298
-0.011340538 0.0014984218 0.007510548
-0.010234196 0.0014960828 0.0075108148
0.010251199 0.0014958731 0.0074946615
0.011355259 0.0014882475 0.0074952981
-0.011162729 0.0024825055 0.0074993023
-0.010088285 0.0023083731 0.0075005568
-0.0099457037 0.0028185793 0.0074817124
0.0099632563 0.0028616327 0.0074999835
0.010079151 0.0023552435 0.0074963742
0.01116744 0.0025015171 0.00752379
-0.011025615 0.0030745566 0.0074610664
-0.010858928 0.003569572 0.0075030462
-0.0097327903 0.0035083906 0.0075002429
0.009746301 0.0035107564 0.0075069848
0.010869907 0.0036005068 0.0074968208
0.011031353 0.0030984408 0.0075689279
-0.010512405 0.0045058993 0.0075087389
-0.0093115922 0.0045071798 0.0074988571
0.0093315579 0.0045009246 0.0074793831
0.010532911 0.0044974051 0.0075055449
-0.010148116 0.0052769948 0.0074876999
-0.0097124558 0.005645026 0.0074966964
-0.0087243421 0.0055597667 0.0074931495
0.0087364102 0.0055678673 0.0074953847
0.0096904933 0.0056373328 0.0074664829
0.010156434 0.0052949232 0.0074999202
-0.0094136829 0.0064877272 0.0074936445
-0.0082244007 0.0062900232 0.0075291344
-0.0078193899 0.0067852191 0.0075166957
0.0078207776 0.0068008048 0.0075038876
0.0082347011 0.0062915385 0.0075082248
0.0094113844 0.0065147365 0.0075063924
-0.0090333512 0.0070299674 0.0074288524
-0.0085252104 0.0075736949 0.0075106141
-0.0075351154 0.0074640731 0.0074374042
-0.006799621 0.0078385901 0.0071786111
0.0067849942 0.0078336215 0.0074906857
0.0073108668 0.0073234257 0.0074944678
0.0086017614 0.0075549255 0.0074943225
0.0090356022 0.0070420681 0.0075262873
-0.0081040701 0.0080799405 0.0071436544
-0.0074291811 0.0084418505 0.0072248457
-0.0065001217 0.0084915161 0.0072560408
-0.005627586 0.0087469406 0.0071994108
0.0055654291 0.0087346947 0.0075095398
0.0062877792 0.0082178311 0.0075281733
0.0075476677 0.0086054737 0.0075090602
0.0081062559 0.008096816 0.0074468697
-0.0070330268 0.0090297079 0.0070784935
-0.0064111957 0.0093196863 0.0072133169
-0.0054831868 0.0095188059 0.0072614141
-0.0045327968 0.0095321191 0.0072385608
-0.0035497656 0.0097877253 0.0072135255
-0.0028342137 0.0099528302 0.007174701
0.0028251633 0.0099550588 0.007500954
0.0034908548 0.0097489767 0.0074975793
0.004515626 0.0093197227 0.007490173
0.0056360029 0.0096932184 0.0075005852
0.0065033725 0.0094171884 0.0075279674
0.0070427344 0.0090334555 0.0075178621
-0.0052784514 0.010111592 0.007156115
-0.0044597844 0.010350406 0.0072199106
-0.003485661 0.010518911 0.0072492836
-0.0024917598 0.010433673 0.0072612325
-0.0015001253 0.010506172 0.0072440356
-0.00050497166 0.010559877 0.007241278
0.00046834603 0.0106012 0.0072213281
0.0018483503 0.010306153 0.0075051165
0.0022782234 0.010410523 0.0075201038
0.003592988 0.010867257 0.0075039654
0.0045157317 0.010519782 0.0075064972
0.0052940054 0.010154583 0.0075011775
-0.0030758965 0.011026277 0.0071009281
-0.0024341054 0.01113372 0.0071803294
-0.0014904531 0.011236149 0.007213058
-0.0004833166 0.011288818 0.0072159329
0.00048517954 0.011275311 0.0072085662
0.0026760765 0.011100076 0.0075057116
0.003091634 0.01102938 0.0075181387
-0.0030759424 -0.011021389 0.0084900623
-0.0027021244 -0.011090968 0.0084725879
-0.0052765049 -0.010147751 0.008490677
-0.004488565 -0.010517007 0.0084885936
-0.0035691152 -0.010862141 0.0085074268
-0.0022879562 -0.010402715 0.0085037276
-0.0018614212 -0.01030633 0.0084906081
0.0048424848 -0.010133902 0.0089817951
0.0052310787 -0.010081969 0.0089451419
-0.0070306272 -0.009022994 0.0084159896
-0.0065037394 -0.0093981344 0.0084940568
-0.0055999467 -0.0096608242 0.0084919846
-0.0045004161 -0.0093236454 0.0085089691
-0.0035131758 -0.0097411443 0.008521405
-0.0028462482 -0.0099507812 0.0084892632
0.0047554816 -0.009565535 0.0089488877
0.0054838154 -0.0094924383 0.008825724
0.006437635 -0.0093069961 0.0087360451
0.0070305741 -0.0090264007 0.0087606488
-0.0080895992 -0.0080876378 0.0085533019
-0.0075341202 -0.0085945455 0.0085035414
-0.0063055959 -0.0082196351 0.0085064219
-0.0055714892 -0.0087325685 0.0085085435
0.0056642122 -0.0087661212 0.0087896595
0.0064967996 -0.0084548872 0.0086070644
0.0074809901 -0.0084699504 0.0085657295
0.0080958148 -0.0080846939 0.0086190589
-0.0090254685 -0.0070263143 0.0084736487
-0.0085849864 -0.0075460994 0.0085123796
-0.0073158722 -0.0073260111 0.0084944246
-0.0067975349 -0.0078092297 0.0085030934
0.0068156309 -0.007835282 0.0086533362
0.0074446918 -0.0074859536 0.0084183812
0.0085672121 -0.0075608143 0.0084849605
0.0090305544 -0.0070337686 0.0084841959
-0.0093927756 -0.006507522 0.0084961383
-0.008225956 -0.0062918491 0.008484859
-0.0078074024 -0.0067873769 0.0085063232
0.0078234095 -0.0068078581 0.0085079204
0.0082214335 -0.0063000172 0.0085243843
0.0094049983 -0.0064997463 0.0084992824
-0.01014359 -0.0052763759 0.0085129337
-0.0096976515 -0.0056217629 0.0084867906
-0.0087229963 -0.0055650654 0.0084935995
0.008739532 -0.0055624703 0.0084862988
0.0096771671 -0.0056128264 0.0085144388
0.010143326 -0.0052852957 0.0084660519
-0.01051522 -0.0044878251 0.0084960191
-0.0093221162 -0.0045053707 0.0084705967
0.0093272943 -0.0045001395 0.0085141584
0.010516324 -0.0045010946 0.0084875599
-0.011020588 -0.0030636229 0.0085055521
-0.01085932 -0.0035694658 0.0084781917
-0.0097400909 -0.0034972441 0.0084978119
0.0097499508 -0.0034954534 0.0084958719
0.010860426 -0.0035692134 0.008486053
0.011025544 -0.0030805073 0.0084787905
-0.011146763 -0.0024957578 0.0085083144
-0.010092887 -0.0023302967 0.0084795784
-0.0099442722 -0.0028488124 0.0084524732
0.0099684596 -0.0028754624 0.0084880982
0.010077284 -0.0023859565 0.0084831538
0.011160294 -0.002499413 0.0085041141
-0.011332406 -0.0015012687 0.008481456
-0.010238851 -0.0014821264 0.0085002771
0.01025123 -0.0015052627 0.0085005164
0.011342198 -0.0014999637 0.0085038887
-0.011417058 -0.00050390646 0.0084769167
-0.010344064 -0.00049174705 0.0085117845
0.010347234 -0.00049620972 0.0084970938
0.011424134 -0.00050162786 0.0085079437
-0.011411713 0.00050131511 0.0085042212
-0.01033828 0.00050300587 0.0084944209
0.010350047 0.00051860226 0.0084961653
0.011429412 0.00050172553 0.0085179545
-0.011330215 0.0014969142 0.0084870514
-0.010238185 0.0014934103 0.0085011246
0.010254982 0.0015133885 0.0084871817
0.011345074 0.0014995701 0.0085193552
-0.011146827 0.0025043041 0.008501214
-0.010089736 0.0023254761 0.0084958076
-0.0099499673 0.0028221612 0.008492426
0.0099666184 0.0028750019 0.0084538003
0.010080565 0.0023719417 0.0085115321
0.011160562 0.0024893803 0.0085144239
-0.011020586 0.0030591264 0.0084396731
-0.01085044 0.0035613335 0.0085042259
-0.0097374106 0.0035091692 0.0084912507
0.0097548859 0.0035039212 0.0085149771
0.010864696 0.0035905845 0.0085083861
0.011023685 0.0030972105 0.0084349047
-0.01049976 0.0045089163 0.0084955972
-0.0093222298 0.0044948994 0.0085062589
0.0093402164 0.0044995998 0.0085044689
0.010526725 0.0044894852 0.008499627
-0.010136869 0.0052726502 0.0084935753
-0.0096899429 0.0056272815 0.0085037258
-0.0087208217 0.0055715516 0.0085008526
0.0087345792 0.0055832369 0.0085125081
0.0096694194 0.0056228088 0.0084972875
0.01015454 0.0052795522 0.0084907515
-0.009390316 0.0065029082 0.0085020093
-0.0082268929 0.0062967376 0.0084977672
-0.0078212991 0.0067942576 0.0085153636
0.0078241611 0.0068057324 0.0085136434
0.0082325349 0.0063048308 0.0085100746
0.0094000157 0.0065147658 0.0085299565
-0.0090243351 0.0070274314 0.0084072277
-0.0085482616 0.0075623593 0.0084786462
-0.007424905 0.0074789659 0.0084316935
-0.0068201926 0.0078206984 0.0086453073
0.006797303 0.0078306338 0.0084783956
0.0073120832 0.0073296507 0.0084965769
0.0085999239 0.0075436025 0.0085039269
0.0090295663 0.0070362026 0.0084880581
-0.0080854231 0.0080835102 0.0086248517
-0.0074968529 0.0084540648 0.0085612349
-0.0064879511 0.0084675215 0.0086006615
-0.0056959125 0.0087341843 0.0087847691
0.0055754008 0.0087365154 0.0085015306
0.0062943124 0.0082187997 0.0085092159
0.0075405049 0.0086001353 0.0085029937
0.0080909301 0.0080996482 0.0084767668
-0.007028955 0.0090210792 0.0088357944
-0.0064482624 0.0092850188 0.0087315161
-0.0055001001 0.0094964672 0.008823094
-0.0047602695 0.0095202504 0.0089440765
0.0028399392 0.0099578779 0.0084851943
0.0035026185 0.0097517977 0.0084830774
0.0044897795 0.0093404679 0.0085095773
0.0056274976 0.0096999658 0.0085440148
0.0065152533 0.0093983328 0.0085380934
0.0070385127 0.0090265106 0.0084422193
-0.0052028224 0.010087812 0.008945331
-0.0048646657 0.010129078 0.0089752171
0.0018658929 0.010307335 0.0085100001
0.0022838057 0.010422627 0.0085132197
0.0035827188 0.010861746 0.0085169179
0.0044919834 0.01052071 0.0085055437
0.0052761286 0.010154304 0.0084942952
0.0027158528 0.011089691 0.0085092122
0.0030775019 0.011024639 0.0084780278
-0.0030560645 -0.01101823 0.0094728041
-0.0027250594 -0.011075734 0.0094755609
-0.00017739541 -0.011184485 0.0099603077
0.00051220518 -0.011244208 0.0098607773
0.0015044814 -0.011241923 0.0097508207
0.0024983261 -0.011131337 0.0096998969
0.0030611225 -0.011017496 0.0097436821
-0.0052666818 -0.010143177 0.0094940821
-0.0045047249 -0.010500143 0.0094939871
-0.0035697268 -0.010852974 0.0095145674
-0.0023067249 -0.010434713 0.0095391748
-0.0018815406 -0.010289088 0.0094361966
-0.00017197413 -0.010627695 0.0099612139
0.00051990815 -0.010618133 0.0098385112
0.0015229115 -0.010519852 0.0096820323
0.0024742528 -0.010399386 0.0095136184
0.00351482 -0.010613108 0.009414725
0.0044706077 -0.010436037 0.0094205597
0.0052697151 -0.010147807 0.0094840508
-0.0070213606 -0.0090194996 0.0094087562
-0.0064925747 -0.0093950676 0.0095116459
-0.0055838828 -0.0096490039 0.009517842
-0.0045129256 -0.0093243979 0.0095021334
-0.0035235104 -0.0097427312 0.0094750039
-0.0028571573 -0.009954012 0.0094859079
0.0028794631 -0.0099706734 0.0096516395
0.0035415946 -0.0097768614 0.0094968472
0.0044713737 -0.0094273034 0.0094062723
0.0056104236 -0.0096714357 0.0094990637
0.0065138307 -0.0093942685 0.009505921
0.0070247049 -0.0090283928 0.0095118564
-0.008083187 -0.0080822147 0.0095166266
-0.0075222836 -0.0085930713 0.0095047643
-0.0063082809 -0.0082252808 0.0095004421
-0.0055857738 -0.0087315915 0.0095070926
0.0055772634 -0.0087466994 0.0095007587
0.0063015106 -0.0082406839 0.0095106475
0.0075244214 -0.0086063258 0.0095067117
0.008087975 -0.0080912588 0.0094885388
-0.009020132 -0.0070198053 0.0094207637
-0.008596126 -0.0075195478 0.0095190639
-0.0073230816 -0.0073276898 0.0095048482
-0.0067993719 -0.0078140944 0.0094803227
0.0068098088 -0.0078315353 0.0094982451
0.0073278719 -0.0073422892 0.0094919102
0.0086037023 -0.007518027 0.0094988942
0.0090216007 -0.0070312968 0.009452235
-0.0093817012 -0.0065085934 0.0095051127
-0.0082379552 -0.006286025 0.0094988104
-0.0078166928 -0.0067845448 0.0095118023
0.0078279693 -0.0068113748 0.0095335506
0.0082194777 -0.006312592 0.0095111318
0.0093794661 -0.0065180925 0.0095004495
-0.01013594 -0.0052717049 0.009500972
-0.009692804 -0.0056238663 0.0094834734
-0.0087354099 -0.0055549657 0.009497378
0.0087339841 -0.0055824788 0.0094933361
0.0096745873 -0.0056114104 0.0095173512
0.010133275 -0.0052765757 0.0095072854
-0.01049949 -0.0045025968 0.0095039392
-0.0093229143 -0.0045181094 0.0094819134
0.0093276296 -0.0045130933 0.0095124869
0.010501576 -0.0045062969 0.0094976136
-0.011014875 -0.0030527064 0.009470975
-0.010856008 -0.003552574 0.009499074
-0.0097424276 -0.0035119902 0.0094833383
0.0097511979 -0.0035025813 0.0094989929
0.01085044 -0.0035644828 0.0095044561
0.011019801 -0.0030662443 0.0094534
-0.011135385 -0.002508502 0.0094973044
-0.010093812 -0.0023489266 0.0094794193
-0.0099512674 -0.002841753 0.009515373
0.0099704331 -0.0028912739 0.0095190266
0.010080626 -0.0023946175 0.0094886795
0.011147346 -0.0025047075 0.0095062265
-0.011321409 -0.0015133276 0.0094895083
-0.010246833 -0.0014796142 0.0094904527
0.010258966 -0.0014915086 0.0095033916
0.011330736 -0.0015011686 0.0095008351
-0.011411062 -0.00048976054 0.0095091397
-0.010351425 -0.00050470751 0.0095077744
0.01035137 -0.00049740059 0.0095053958
0.011412569 -0.00050925522 0.0095090307
-0.011400407 0.00050650974 0.0095015019
-0.010345956 0.00049940537 0.0095044309
0.010361527 0.00047936485 0.0094885249
0.011423229 0.00049478823 0.0095217954
-0.011318702 0.0015038006 0.0094922613
-0.01024132 0.0014940755 0.0094980132
0.010262631 0.0015054663 0.0094946045
0.011334599 0.0015048083 0.009498666
-0.011138162 0.0024896874 0.0094952546
-0.010095546 0.0023226098 0.0094974553
-0.0099532269 0.0028291175 0.0094941258
0.0099709304 0.0028861293 0.0094928239
0.010083052 0.0023854615 0.0095083332
0.01114748 0.0025101763 0.0094966432
-0.011017234 0.0030367482 0.0094574075
-0.010846346 0.0035403806 0.0094894571
-0.0097385375 0.0035207665 0.0094939237
0.0097580636 0.003511772 0.0095080277
0.010862843 0.0035700188 0.0095097842
0.011023119 0.0030659898 0.0094891349
-0.010490896 0.0045020124 0.0095017944
-0.0093300994 0.0044873417 0.0094945384
0.0093417801 0.0045108804 0.0095127625
0.010510153 0.0045058862 0.0095019136
-0.010129824 0.0052590505 0.0094828149
-0.0096789133 0.0056013037 0.0095021259
-0.008726812 0.0055673625 0.0095094647
0.0087357862 0.0055937273 0.0094737196
0.0096718688 0.0056085829 0.0095103038
0.010138039 0.0052917087 0.0094747879
-0.009382193 0.0064953575 0.0095074959
-0.0082275551 0.0063061332 0.009491561
-0.0078184875 0.0068084872 0.0094934395
0.0078270016 0.006811114 0.009501935
0.0082377438 0.0063085137 0.0095132189
0.0094133001 0.0064803348 0.0095031196
-0.0090223625 0.0070159324 0.0094303191
-0.0085842321 0.0075235222 0.0095049944
-0.0073312805 0.0073287743 0.0095215868
-0.0067978865 0.0078187305 0.0094693294
0.006795086 0.0078398902 0.0094969133
0.0073225102 0.0073270197 0.0095003238
0.0085862968 0.0075461911 0.0095064742
0.0090208305 0.0070333276 0.009470243
-0.0080854157 0.0080817994 0.0094402423
-0.0075144824 0.0086037535 0.0095132738
-0.0063016308 0.0082345456 0.0094896331
-0.0055909478 0.0087319231 0.0094933994
0.005581656 0.0087399539 0.009498639
0.0062935106 0.0082260463 0.0095095839
0.0075324909 0.0085952776 0.0094947563
0.0080893561 0.0080887554 0.0094901435
-0.0070221289 0.0090212161 0.0094518587
-0.0065124333 0.0093865357 0.0095011843
-0.0055890349 0.009664054 0.009499439
-0.0044576791 0.0094301039 0.0094167478
-0.0035450379 0.009773327 0.0094991606
-0.0028906991 0.0099650444 0.0096286945
0.002853072 0.0099611012 0.0094670374
0.0034919633 0.0097625973 0.0094894012
0.0045156963 0.0093344469 0.0094797695
0.0056032576 0.0096529471 0.009513298
0.0064971838 0.0094006266 0.0095010065
0.0070260065 0.0090257889 0.0094297994
-0.0052693412 0.010141657 0.009495154
-0.0044682096 0.010428183 0.0094092935
-0.0035082593 0.010605644 0.0094164405
-0.0024757308 0.010403918 0.0095103988
-0.0015238505 0.01051027 0.0096814688
-0.00054596871 0.010602455 0.0098329438
0.00015511329 0.010661807 0.0099576218
0.0018864017 0.010286747 0.0094531802
0.0023090753 0.010417279 0.0095463628
0.0035682716 0.010857387 0.0095353983
0.0045049135 0.010505552 0.0094842222
0.0052804467 0.010142431 0.0094815176
-0.003058654 0.011013555 0.0097343493
-0.0024803216 0.011126524 0.0096894754
-0.0015117505 0.011228175 0.0097477408
-0.0005160498 0.01125816 0.0098629165
0.00019848095 0.011202752 0.0099629052
0.0027356669 0.011081061 0.0094717536
0.0030644659 0.011019377 0.0094664693
-0.0030455452 -0.011012275 0.010450298
-0.0028282451 -0.011050419 0.01052154
-0.00042404712 -0.011318077 0.010471795
0.00047840184 -0.01141193 0.010500455
0.0015055549 -0.011323169 0.010481268
0.0024842594 -0.011148806 0.010512238
0.0030425256 -0.011015796 0.010517547
-0.0052606016 -0.010136587 0.010497046
-0.0045098956 -0.01048812 0.010507453
-0.003543426 -0.010852603 0.010508842
-0.0023514349 -0.010402408 0.010495972
-0.0019747284 -0.010215581 0.010489538
-0.00038989048 -0.010619928 0.010474365
0.00050429517 -0.010365665 0.01049071
0.0015033379 -0.010269332 0.010503453
0.0023781166 -0.010102798 0.010508488
0.0035332383 -0.010863706 0.010496599
0.0045038247 -0.010497283 0.010506446
0.005266598 -0.010141695 0.010482114
-0.0070163086 -0.0090114595 0.010490774
-0.0064990828 -0.0093800221 0.010499168
-0.0055842795 -0.0096467026 0.010539122
-0.0045009712 -0.0093375472 0.010496874
-0.0035188629 -0.0097498335 0.010487541
-0.002868901 -0.0099569494 0.010474265
0.0028884371 -0.0099712666 0.010474659
0.003493479 -0.0097728195 0.010485966
0.0044936826 -0.0093564466 0.010529095
0.0056096464 -0.0096219415 0.010521766
0.0064561903 -0.0093648089 0.010592525
0.0070272228 -0.0090166926 0.01039715
-0.0080746515 -0.0080793025 0.01045547
-0.0075325747 -0.008572137 0.010509743
-0.0063085137 -0.0082332762 0.010521793
-0.0055772848 -0.0087444466 0.010490699
0.0056227478 -0.008752021 0.010557049
0.0064693415 -0.0084101669 0.010685006
0.0074668513 -0.0085190907 0.010559537
0.0080722403 -0.0080872569 0.010453122
-0.0090116356 -0.0070161014 0.010442195
-0.0085806493 -0.0075242519 0.010517597
-0.007324765 -0.0073343106 0.010494529
-0.0067994734 -0.0078206072 0.010470123
0.0068229395 -0.0078377323 0.010443557
0.0074646152 -0.0074886908 0.01057284
0.0085059777 -0.0074609034 0.010487352
0.0090157809 -0.0070273429 0.01028671
-0.0093769087 -0.0065003331 0.010528308
-0.0082402108 -0.0062921019 0.010512189
-0.0078257928 -0.0067829955 0.010485717
0.0078406576 -0.0068249935 0.010393939
0.008436555 -0.0064768358 0.010558344
0.0093362629 -0.0064609712 0.010441798
-0.010136259 -0.005250629 0.010540852
-0.0096826144 -0.0056099324 0.010490238
-0.0087404987 -0.0055575576 0.010493464
0.0087666363 -0.0056083244 0.010421583
0.0095346421 -0.0055152522 0.010571599
0.01012035 -0.0052511869 0.010402296
-0.01049334 -0.0044951476 0.010511194
-0.009340778 -0.0044950368 0.010492912
0.0094770724 -0.0045352927 0.010499112
0.01040065 -0.0044750953 0.010479629
-0.011010644 -0.0030345793 0.010507344
-0.010851354 -0.0035396849 0.010514134
-0.0097515872 -0.0035015529 0.010495766
0.0097730551 -0.0035415411 0.010421129
0.010601686 -0.0034966392 0.010553017
0.011016787 -0.003044056 0.010354255
-0.011127476 -0.002507593 0.010491641
-0.010099603 -0.0023497434 0.010514635
-0.0099569252 -0.0028393448 0.01050634
0.0099704824 -0.0029054407 0.010329789
0.01037511 -0.0024752792 0.010562791
0.011129417 -0.0024791514 0.010402816
-0.011312491 -0.0015078526 0.010501303
-0.010253293 -0.0015016375 0.010518317
0.010455483 -0.0015215188 0.010517109
0.011265289 -0.0015024894 0.010454116
-0.011344711 -0.00045305886 0.01054138
-0.010487352 -0.00047188756 0.01057724
0.010503307 -0.00050797535 0.01050624
0.011329776 -0.00049319863 0.010466195
-0.011325925 0.00049537607 0.010450446
-0.010506254 0.00050165987 0.010507216
0.010476325 0.00046706514 0.010555547
